ply
format ascii 1.0
element vertex 1221
property float x
property float y
property float z
property uchar red
property uchar green
property uchar blue
element face 0
property list uint8 int32 vertex_index
end_header
622.00000 396.00000 10.00000 174 180 75
612.00000 386.00000 20.00000 59 85 111
610.00000 386.00000 30.00000 18 45 81
612.00000 386.00000 24.00000 41 68 100
612.00000 392.00000 20.00000 53 85 124
614.00000 396.00000 20.00000 55 87 128
610.00000 392.00000 28.00000 35 66 103
610.00000 392.00000 30.00000 34 65 102
612.00000 392.00000 24.00000 46 77 114
612.00000 396.00000 24.00000 47 79 118
612.00000 398.00000 28.00000 43 75 112
612.00000 398.00000 30.00000 44 76 113
618.00000 402.00000 14.00000 69 79 119
620.00000 400.00000 14.00000 84 94 115
620.00000 406.00000 14.00000 82 71 106
622.00000 412.00000 14.00000 79 84 61
614.00000 402.00000 24.00000 53 84 123
612.00000 402.00000 28.00000 49 80 117
612.00000 402.00000 30.00000 49 80 117
614.00000 408.00000 24.00000 73 95 132
614.00000 408.00000 28.00000 54 75 110
614.00000 408.00000 30.00000 51 72 107
614.00000 412.00000 26.00000 56 73 109
614.00000 412.00000 30.00000 38 55 89
616.00000 402.00000 20.00000 50 82 123
618.00000 406.00000 16.00000 76 77 112
616.00000 406.00000 20.00000 63 85 124
616.00000 412.00000 20.00000 78 82 125
620.00000 412.00000 16.00000 69 80 70
616.00000 412.00000 24.00000 66 80 119
626.00000 384.00000 8.00000 215 174 93
626.00000 388.00000 8.00000 236 187 90
628.00000 384.00000 8.00000 217 175 91
630.00000 388.00000 8.00000 220 172 91
628.00000 394.00000 10.00000 180 155 84
632.00000 388.00000 8.00000 210 165 89
632.00000 390.00000 8.00000 205 162 92
638.00000 388.00000 8.00000 196 147 86
634.00000 394.00000 8.00000 185 143 99
634.00000 398.00000 8.00000 191 151 102
636.00000 392.00000 8.00000 170 126 76
638.00000 392.00000 8.00000 162 118 68
638.00000 394.00000 8.00000 146 102 52
624.00000 400.00000 10.00000 167 149 81
624.00000 406.00000 12.00000 127 102 73
628.00000 400.00000 10.00000 181 142 79
630.00000 404.00000 10.00000 191 157 99
626.00000 410.00000 12.00000 149 117 38
630.00000 410.00000 10.00000 187 155 76
634.00000 404.00000 10.00000 214 180 132
632.00000 414.00000 10.00000 213 182 93
636.00000 408.00000 10.00000 252 220 157
638.00000 408.00000 10.00000 254 220 156
636.00000 412.00000 10.00000 255 253 167
636.00000 414.00000 10.00000 255 239 148
638.00000 412.00000 10.00000 255 243 157
638.00000 414.00000 10.00000 255 238 145
608.00000 402.00000 36.00000 24 65 104
608.00000 404.00000 36.00000 21 62 101
608.00000 408.00000 36.00000 12 47 85
610.00000 408.00000 36.00000 13 48 86
608.00000 414.00000 36.00000 16 42 86
610.00000 414.00000 36.00000 17 43 87
622.00000 416.00000 14.00000 31 66 56
618.00000 418.00000 20.00000 83 72 126
620.00000 416.00000 16.00000 51 71 71
622.00000 422.00000 16.00000 97 80 44
620.00000 422.00000 20.00000 71 68 103
616.00000 418.00000 24.00000 66 66 112
616.00000 418.00000 26.00000 61 63 107
616.00000 418.00000 30.00000 38 55 91
616.00000 422.00000 24.00000 62 65 102
616.00000 422.00000 26.00000 59 63 102
616.00000 422.00000 30.00000 42 57 91
622.00000 428.00000 16.00000 67 60 68
620.00000 428.00000 20.00000 67 63 80
616.00000 428.00000 26.00000 60 66 88
618.00000 428.00000 24.00000 62 66 89
616.00000 428.00000 30.00000 55 64 90
622.00000 432.00000 18.00000 73 75 95
622.00000 432.00000 20.00000 71 72 90
618.00000 434.00000 24.00000 73 71 118
618.00000 434.00000 26.00000 70 70 112
618.00000 434.00000 30.00000 59 68 94
618.00000 438.00000 28.00000 66 70 109
618.00000 438.00000 30.00000 66 70 109
620.00000 438.00000 24.00000 87 75 141
622.00000 444.00000 24.00000 63 79 87
620.00000 444.00000 28.00000 41 64 75
620.00000 444.00000 30.00000 42 65 78
626.00000 416.00000 12.00000 118 96 33
624.00000 422.00000 14.00000 144 102 39
628.00000 420.00000 14.00000 207 118 0
628.00000 426.00000 14.00000 230 164 77
628.00000 428.00000 14.00000 227 166 70
632.00000 420.00000 12.00000 233 158 35
638.00000 416.00000 10.00000 255 238 142
638.00000 420.00000 10.00000 255 224 103
638.00000 422.00000 10.00000 255 210 87
634.00000 426.00000 12.00000 255 170 32
632.00000 430.00000 14.00000 224 169 44
634.00000 430.00000 14.00000 221 173 46
638.00000 424.00000 12.00000 255 192 62
630.00000 432.00000 14.00000 214 171 50
634.00000 434.00000 14.00000 220 188 51
636.00000 436.00000 14.00000 198 164 38
638.00000 436.00000 14.00000 195 161 33
624.00000 438.00000 18.00000 78 104 124
624.00000 438.00000 20.00000 79 94 121
630.00000 436.00000 16.00000 180 157 62
624.00000 440.00000 20.00000 79 88 120
624.00000 442.00000 20.00000 78 83 116
626.00000 442.00000 20.00000 80 74 110
630.00000 442.00000 16.00000 204 153 27
632.00000 446.00000 18.00000 253 203 97
636.00000 440.00000 16.00000 155 108 0
636.00000 446.00000 16.00000 196 139 38
610.00000 418.00000 36.00000 25 45 90
612.00000 418.00000 36.00000 24 45 90
610.00000 424.00000 36.00000 29 49 96
612.00000 424.00000 36.00000 34 51 99
612.00000 428.00000 38.00000 39 56 102
614.00000 428.00000 36.00000 39 57 101
608.00000 430.00000 40.00000 46 69 120
612.00000 434.00000 38.00000 46 70 113
608.00000 434.00000 42.00000 52 79 127
610.00000 434.00000 40.00000 48 74 120
614.00000 440.00000 38.00000 45 72 104
608.00000 440.00000 42.00000 58 89 136
608.00000 446.00000 46.00000 56 88 130
610.00000 446.00000 44.00000 52 82 124
612.00000 440.00000 40.00000 45 74 109
614.00000 444.00000 40.00000 34 63 96
616.00000 434.00000 36.00000 49 66 100
616.00000 438.00000 36.00000 47 69 104
618.00000 444.00000 36.00000 34 63 98
578.00000 450.00000 52.00000 48 84 125
578.00000 454.00000 56.00000 68 102 143
580.00000 456.00000 56.00000 73 104 141
580.00000 462.00000 58.00000 131 134 145
584.00000 448.00000 48.00000 127 135 155
584.00000 450.00000 50.00000 146 151 160
586.00000 448.00000 48.00000 158 163 176
586.00000 450.00000 50.00000 166 169 178
588.00000 448.00000 50.00000 232 230 228
590.00000 452.00000 50.00000 194 195 146
590.00000 454.00000 52.00000 95 105 81
584.00000 456.00000 54.00000 55 91 132
590.00000 460.00000 54.00000 76 108 143
586.00000 460.00000 56.00000 84 119 157
586.00000 460.00000 58.00000 82 117 155
588.00000 460.00000 56.00000 80 115 151
576.00000 466.00000 60.00000 217 217 213
576.00000 468.00000 60.00000 226 221 208
576.00000 470.00000 62.00000 235 224 189
580.00000 466.00000 60.00000 247 228 216
582.00000 470.00000 62.00000 248 219 204
576.00000 472.00000 62.00000 240 223 192
580.00000 472.00000 62.00000 247 217 198
582.00000 472.00000 62.00000 249 216 200
582.00000 474.00000 62.00000 251 213 200
586.00000 466.00000 60.00000 171 176 187
586.00000 468.00000 60.00000 179 182 193
586.00000 470.00000 62.00000 187 179 183
588.00000 466.00000 58.00000 112 135 162
590.00000 464.00000 58.00000 75 107 144
590.00000 468.00000 58.00000 88 120 155
588.00000 470.00000 60.00000 186 196 215
590.00000 470.00000 60.00000 132 154 181
584.00000 472.00000 62.00000 232 202 193
586.00000 472.00000 62.00000 206 186 184
586.00000 474.00000 62.00000 195 175 177
586.00000 476.00000 62.00000 175 163 170
588.00000 474.00000 62.00000 153 149 162
590.00000 474.00000 60.00000 87 112 142
588.00000 476.00000 62.00000 144 143 159
588.00000 478.00000 62.00000 138 140 158
590.00000 476.00000 62.00000 111 125 150
604.00000 452.00000 46.00000 69 96 146
592.00000 448.00000 48.00000 229 219 198
594.00000 448.00000 48.00000 213 207 192
592.00000 454.00000 50.00000 164 159 144
594.00000 454.00000 50.00000 153 143 143
596.00000 448.00000 48.00000 201 195 194
598.00000 448.00000 48.00000 192 189 194
596.00000 456.00000 50.00000 118 89 140
598.00000 458.00000 50.00000 102 91 143
596.00000 458.00000 52.00000 97 85 136
600.00000 452.00000 48.00000 132 141 193
600.00000 458.00000 50.00000 87 84 139
602.00000 460.00000 50.00000 49 71 134
602.00000 462.00000 50.00000 50 72 133
604.00000 456.00000 48.00000 57 82 139
606.00000 456.00000 48.00000 55 80 135
606.00000 458.00000 48.00000 54 79 134
604.00000 460.00000 48.00000 49 74 132
604.00000 462.00000 50.00000 48 73 131
606.00000 460.00000 48.00000 50 75 132
606.00000 462.00000 48.00000 48 73 130
596.00000 464.00000 52.00000 49 76 124
598.00000 466.00000 54.00000 53 83 128
592.00000 464.00000 56.00000 70 102 139
594.00000 464.00000 56.00000 63 94 133
592.00000 468.00000 58.00000 71 103 140
592.00000 470.00000 58.00000 69 101 138
594.00000 468.00000 56.00000 42 74 113
596.00000 468.00000 56.00000 52 84 125
596.00000 470.00000 56.00000 55 87 128
598.00000 468.00000 56.00000 58 90 132
592.00000 472.00000 58.00000 71 103 140
594.00000 474.00000 60.00000 62 98 138
592.00000 476.00000 60.00000 67 102 140
594.00000 478.00000 60.00000 54 94 137
596.00000 472.00000 58.00000 61 95 136
596.00000 474.00000 58.00000 60 96 136
598.00000 472.00000 56.00000 62 97 135
598.00000 474.00000 58.00000 63 98 136
596.00000 476.00000 58.00000 55 95 138
596.00000 478.00000 58.00000 54 94 137
598.00000 476.00000 58.00000 60 96 136
596.00000 478.00000 60.00000 53 93 136
602.00000 466.00000 52.00000 51 76 131
600.00000 468.00000 54.00000 56 86 131
602.00000 468.00000 52.00000 55 82 132
606.00000 466.00000 50.00000 52 79 131
604.00000 470.00000 52.00000 60 90 133
606.00000 468.00000 52.00000 56 83 133
606.00000 470.00000 52.00000 57 87 132
604.00000 472.00000 54.00000 63 95 136
606.00000 472.00000 52.00000 58 90 131
600.00000 474.00000 56.00000 63 98 136
602.00000 472.00000 56.00000 67 99 138
602.00000 474.00000 56.00000 63 98 136
602.00000 476.00000 56.00000 60 96 134
602.00000 478.00000 58.00000 55 93 133
604.00000 476.00000 56.00000 59 95 133
604.00000 478.00000 56.00000 58 94 132
606.00000 478.00000 56.00000 57 93 127
592.00000 480.00000 62.00000 52 92 137
594.00000 480.00000 62.00000 52 92 139
594.00000 484.00000 62.00000 41 88 141
596.00000 482.00000 62.00000 43 88 138
598.00000 480.00000 60.00000 49 91 135
598.00000 482.00000 60.00000 48 90 136
598.00000 484.00000 62.00000 43 87 137
600.00000 480.00000 58.00000 50 90 133
602.00000 482.00000 58.00000 48 89 129
600.00000 482.00000 60.00000 47 89 133
600.00000 484.00000 62.00000 44 86 132
600.00000 486.00000 62.00000 43 83 130
602.00000 486.00000 62.00000 44 82 127
604.00000 482.00000 58.00000 48 86 127
606.00000 484.00000 58.00000 46 84 124
604.00000 484.00000 60.00000 46 84 125
604.00000 486.00000 62.00000 45 80 124
606.00000 484.00000 60.00000 48 84 125
606.00000 486.00000 60.00000 47 83 124
600.00000 488.00000 62.00000 42 82 127
604.00000 490.00000 62.00000 41 76 122
606.00000 488.00000 62.00000 44 78 122
606.00000 490.00000 62.00000 43 77 121
606.00000 492.00000 62.00000 43 77 121
622.00000 448.00000 24.00000 60 75 179
620.00000 448.00000 30.00000 38 61 86
622.00000 448.00000 30.00000 38 61 86
622.00000 454.00000 30.00000 34 58 97
626.00000 448.00000 20.00000 89 117 48
626.00000 452.00000 22.00000 97 110 55
628.00000 448.00000 20.00000 110 127 57
626.00000 454.00000 24.00000 77 96 71
624.00000 458.00000 30.00000 47 64 98
628.00000 458.00000 24.00000 34 69 71
628.00000 460.00000 24.00000 72 87 74
630.00000 462.00000 24.00000 137 120 72
632.00000 452.00000 20.00000 175 130 49
638.00000 450.00000 18.00000 193 139 34
634.00000 456.00000 20.00000 203 147 36
634.00000 462.00000 22.00000 255 185 51
638.00000 456.00000 18.00000 206 144 14
638.00000 456.00000 20.00000 205 144 20
626.00000 464.00000 30.00000 86 72 119
628.00000 464.00000 26.00000 109 95 92
628.00000 468.00000 30.00000 69 69 109
630.00000 468.00000 28.00000 98 87 101
630.00000 474.00000 30.00000 67 81 108
634.00000 468.00000 24.00000 232 174 61
636.00000 468.00000 24.00000 241 180 58
636.00000 470.00000 24.00000 246 184 58
632.00000 474.00000 30.00000 79 87 111
634.00000 478.00000 30.00000 119 109 109
636.00000 472.00000 26.00000 255 194 55
638.00000 472.00000 24.00000 255 193 63
638.00000 478.00000 28.00000 250 220 127
610.00000 450.00000 44.00000 50 80 122
610.00000 450.00000 46.00000 51 81 123
614.00000 448.00000 40.00000 25 58 88
608.00000 456.00000 46.00000 53 78 133
610.00000 460.00000 46.00000 44 70 122
612.00000 456.00000 46.00000 42 68 118
612.00000 458.00000 46.00000 42 68 118
614.00000 456.00000 44.00000 39 65 111
614.00000 458.00000 44.00000 40 66 114
614.00000 458.00000 46.00000 42 68 118
612.00000 460.00000 46.00000 44 70 122
620.00000 448.00000 36.00000 32 59 97
622.00000 454.00000 36.00000 33 60 100
616.00000 450.00000 40.00000 28 59 94
616.00000 454.00000 42.00000 34 62 104
618.00000 454.00000 40.00000 34 62 104
622.00000 460.00000 34.00000 54 62 104
622.00000 460.00000 36.00000 51 61 103
622.00000 462.00000 36.00000 50 60 102
616.00000 456.00000 42.00000 36 64 107
616.00000 458.00000 42.00000 38 64 110
616.00000 460.00000 46.00000 41 67 117
618.00000 460.00000 44.00000 40 66 114
622.00000 460.00000 40.00000 39 63 107
608.00000 460.00000 48.00000 47 72 127
608.00000 462.00000 48.00000 47 72 127
610.00000 462.00000 48.00000 46 71 126
616.00000 464.00000 46.00000 43 69 121
618.00000 464.00000 44.00000 42 68 118
618.00000 464.00000 46.00000 43 69 119
618.00000 466.00000 46.00000 43 69 119
618.00000 468.00000 46.00000 43 69 115
620.00000 464.00000 46.00000 42 68 116
622.00000 470.00000 46.00000 43 67 110
608.00000 464.00000 50.00000 50 75 130
608.00000 466.00000 50.00000 51 77 129
610.00000 464.00000 48.00000 47 73 125
610.00000 466.00000 50.00000 50 76 128
608.00000 468.00000 50.00000 51 78 128
608.00000 470.00000 50.00000 53 80 128
610.00000 470.00000 50.00000 52 82 127
612.00000 464.00000 48.00000 46 72 124
612.00000 466.00000 48.00000 46 72 124
614.00000 466.00000 48.00000 45 71 121
612.00000 470.00000 50.00000 50 78 123
614.00000 470.00000 48.00000 43 69 113
608.00000 472.00000 52.00000 57 89 130
608.00000 476.00000 54.00000 59 96 127
610.00000 476.00000 52.00000 55 90 124
610.00000 478.00000 54.00000 56 91 123
612.00000 472.00000 50.00000 50 78 121
614.00000 472.00000 50.00000 48 76 119
612.00000 476.00000 52.00000 54 86 121
614.00000 476.00000 52.00000 51 82 117
608.00000 478.00000 56.00000 56 91 123
616.00000 466.00000 48.00000 44 70 118
616.00000 468.00000 48.00000 43 69 115
616.00000 470.00000 48.00000 43 69 113
618.00000 470.00000 48.00000 45 69 113
618.00000 476.00000 50.00000 46 73 111
616.00000 478.00000 52.00000 48 77 112
620.00000 476.00000 50.00000 44 71 109
620.00000 478.00000 50.00000 43 70 108
624.00000 464.00000 36.00000 51 59 99
624.00000 464.00000 38.00000 45 59 100
626.00000 468.00000 36.00000 35 52 86
624.00000 464.00000 40.00000 39 59 99
624.00000 468.00000 40.00000 38 58 98
624.00000 470.00000 42.00000 41 61 103
626.00000 470.00000 40.00000 40 58 100
628.00000 474.00000 36.00000 62 73 131
630.00000 478.00000 36.00000 75 79 162
626.00000 474.00000 44.00000 43 63 107
626.00000 474.00000 46.00000 42 62 104
626.00000 478.00000 46.00000 37 58 93
628.00000 474.00000 40.00000 53 66 123
632.00000 478.00000 32.00000 99 97 121
638.00000 484.00000 28.00000 183 167 61
638.00000 484.00000 30.00000 184 167 71
608.00000 480.00000 58.00000 54 89 123
608.00000 482.00000 58.00000 52 87 123
610.00000 480.00000 56.00000 54 89 121
610.00000 482.00000 58.00000 51 86 120
608.00000 484.00000 58.00000 48 84 122
610.00000 486.00000 58.00000 48 83 121
608.00000 486.00000 60.00000 46 82 122
614.00000 480.00000 56.00000 53 86 118
614.00000 482.00000 56.00000 50 82 117
612.00000 486.00000 58.00000 48 80 119
614.00000 484.00000 58.00000 49 81 118
608.00000 490.00000 62.00000 42 76 118
610.00000 488.00000 60.00000 45 80 118
610.00000 490.00000 62.00000 44 76 117
610.00000 492.00000 62.00000 42 74 113
614.00000 488.00000 58.00000 43 74 113
612.00000 488.00000 60.00000 46 78 117
612.00000 492.00000 62.00000 42 73 112
612.00000 494.00000 62.00000 41 72 109
614.00000 494.00000 62.00000 42 70 108
616.00000 480.00000 54.00000 49 80 115
618.00000 480.00000 54.00000 48 77 112
620.00000 480.00000 52.00000 43 70 108
622.00000 484.00000 52.00000 38 62 101
622.00000 484.00000 54.00000 38 62 101
616.00000 482.00000 56.00000 48 79 114
616.00000 484.00000 56.00000 46 77 114
618.00000 484.00000 56.00000 44 72 110
620.00000 484.00000 56.00000 42 69 109
620.00000 486.00000 56.00000 40 67 107
622.00000 486.00000 56.00000 38 65 105
616.00000 488.00000 58.00000 42 73 112
618.00000 490.00000 58.00000 40 67 109
616.00000 494.00000 62.00000 41 69 109
618.00000 492.00000 60.00000 41 68 108
618.00000 494.00000 62.00000 41 68 108
620.00000 488.00000 56.00000 38 65 105
620.00000 490.00000 58.00000 39 66 108
622.00000 488.00000 56.00000 37 61 104
620.00000 492.00000 58.00000 39 66 108
622.00000 492.00000 58.00000 39 66 108
620.00000 492.00000 60.00000 40 67 107
620.00000 494.00000 62.00000 40 67 107
616.00000 496.00000 62.00000 41 69 109
618.00000 498.00000 62.00000 41 68 108
622.00000 496.00000 62.00000 40 67 109
622.00000 498.00000 62.00000 41 65 108
626.00000 480.00000 46.00000 38 59 94
628.00000 480.00000 40.00000 70 75 142
630.00000 486.00000 40.00000 93 84 152
630.00000 486.00000 46.00000 62 63 95
632.00000 484.00000 34.00000 107 102 135
632.00000 484.00000 36.00000 106 99 135
632.00000 486.00000 36.00000 108 99 133
634.00000 490.00000 36.00000 127 103 104
636.00000 490.00000 36.00000 131 106 102
638.00000 494.00000 36.00000 172 130 84
632.00000 490.00000 40.00000 93 82 115
632.00000 490.00000 46.00000 52 53 65
624.00000 480.00000 50.00000 40 62 99
624.00000 482.00000 50.00000 40 62 99
626.00000 482.00000 50.00000 40 61 98
624.00000 484.00000 52.00000 39 61 100
624.00000 486.00000 52.00000 39 61 100
628.00000 486.00000 50.00000 42 57 88
626.00000 488.00000 52.00000 40 55 86
626.00000 488.00000 54.00000 39 56 90
630.00000 490.00000 50.00000 43 51 73
628.00000 488.00000 52.00000 41 55 84
628.00000 492.00000 52.00000 37 51 80
624.00000 488.00000 56.00000 38 60 101
626.00000 492.00000 56.00000 33 54 101
634.00000 496.00000 40.00000 97 84 99
632.00000 496.00000 46.00000 42 50 86
634.00000 500.00000 44.00000 52 57 128
634.00000 500.00000 46.00000 49 55 116
636.00000 500.00000 40.00000 78 77 113
638.00000 506.00000 46.00000 51 84 109
626.00000 496.00000 58.00000 38 59 104
624.00000 498.00000 60.00000 41 63 106
624.00000 498.00000 62.00000 42 64 107
626.00000 498.00000 62.00000 42 64 107
624.00000 500.00000 62.00000 41 65 108
628.00000 496.00000 56.00000 36 58 101
630.00000 496.00000 56.00000 36 58 101
630.00000 498.00000 58.00000 37 57 97
628.00000 498.00000 60.00000 39 61 104
630.00000 500.00000 58.00000 41 61 103
628.00000 500.00000 62.00000 43 65 108
628.00000 502.00000 62.00000 47 69 112
630.00000 502.00000 60.00000 49 71 112
630.00000 504.00000 62.00000 52 72 114
630.00000 506.00000 62.00000 52 72 114
632.00000 496.00000 50.00000 31 45 68
634.00000 500.00000 50.00000 40 54 91
632.00000 500.00000 56.00000 40 60 100
636.00000 504.00000 50.00000 51 75 114
636.00000 506.00000 50.00000 51 76 112
636.00000 506.00000 52.00000 51 76 112
638.00000 510.00000 50.00000 50 77 111
632.00000 506.00000 62.00000 54 74 116
636.00000 506.00000 56.00000 50 75 111
636.00000 508.00000 56.00000 51 76 112
636.00000 510.00000 58.00000 51 76 112
638.00000 510.00000 56.00000 51 76 112
636.00000 510.00000 62.00000 52 74 115
576.00000 476.00000 64.00000 217 223 182
576.00000 478.00000 66.00000 128 143 156
578.00000 476.00000 64.00000 202 203 189
578.00000 478.00000 64.00000 175 185 197
580.00000 474.00000 64.00000 225 202 187
580.00000 476.00000 64.00000 207 190 186
580.00000 478.00000 64.00000 166 165 179
582.00000 476.00000 64.00000 204 178 180
576.00000 480.00000 66.00000 104 119 151
578.00000 480.00000 66.00000 55 74 130
578.00000 482.00000 66.00000 61 80 132
576.00000 484.00000 68.00000 49 88 151
578.00000 486.00000 68.00000 47 83 145
580.00000 482.00000 66.00000 72 84 130
582.00000 480.00000 64.00000 112 112 142
582.00000 482.00000 66.00000 86 93 131
580.00000 486.00000 68.00000 47 79 142
578.00000 488.00000 70.00000 45 81 143
580.00000 488.00000 68.00000 46 76 137
580.00000 488.00000 70.00000 45 78 138
580.00000 490.00000 70.00000 45 74 133
582.00000 488.00000 68.00000 45 70 128
582.00000 490.00000 68.00000 45 68 126
576.00000 494.00000 74.00000 43 74 125
578.00000 492.00000 72.00000 45 74 130
578.00000 494.00000 74.00000 44 74 125
580.00000 492.00000 72.00000 45 74 130
580.00000 494.00000 72.00000 46 73 129
582.00000 494.00000 72.00000 47 74 130
584.00000 480.00000 64.00000 102 103 133
584.00000 482.00000 64.00000 89 92 124
586.00000 480.00000 64.00000 104 106 131
586.00000 482.00000 64.00000 93 98 129
584.00000 484.00000 66.00000 49 59 101
584.00000 486.00000 66.00000 51 65 110
586.00000 486.00000 66.00000 55 73 117
584.00000 486.00000 68.00000 47 64 112
588.00000 480.00000 64.00000 97 102 131
588.00000 484.00000 64.00000 74 94 134
588.00000 486.00000 66.00000 53 79 127
590.00000 484.00000 64.00000 60 90 135
590.00000 486.00000 66.00000 56 87 134
584.00000 490.00000 68.00000 45 70 128
584.00000 490.00000 70.00000 45 70 128
586.00000 490.00000 68.00000 45 71 129
584.00000 494.00000 70.00000 46 72 130
586.00000 492.00000 68.00000 43 72 129
586.00000 494.00000 70.00000 45 74 131
588.00000 488.00000 66.00000 48 77 131
590.00000 490.00000 66.00000 42 75 130
588.00000 490.00000 68.00000 43 73 130
588.00000 492.00000 68.00000 43 73 130
590.00000 492.00000 68.00000 44 74 131
590.00000 494.00000 70.00000 45 75 132
584.00000 494.00000 72.00000 47 73 131
578.00000 496.00000 74.00000 44 74 125
576.00000 498.00000 76.00000 45 75 124
576.00000 498.00000 78.00000 47 78 129
576.00000 500.00000 78.00000 50 81 132
578.00000 500.00000 78.00000 49 80 133
580.00000 496.00000 74.00000 45 74 128
582.00000 498.00000 74.00000 48 77 134
582.00000 500.00000 74.00000 48 78 135
580.00000 500.00000 76.00000 48 79 132
580.00000 500.00000 78.00000 49 80 133
580.00000 502.00000 78.00000 48 81 134
582.00000 502.00000 78.00000 49 82 137
582.00000 504.00000 78.00000 51 85 141
584.00000 496.00000 72.00000 46 75 132
584.00000 498.00000 74.00000 47 77 134
586.00000 496.00000 72.00000 47 76 133
586.00000 498.00000 72.00000 47 77 134
586.00000 500.00000 74.00000 49 79 136
584.00000 500.00000 76.00000 49 82 140
586.00000 502.00000 78.00000 52 88 148
590.00000 498.00000 72.00000 45 78 134
590.00000 500.00000 72.00000 47 80 136
590.00000 502.00000 74.00000 50 84 142
586.00000 504.00000 78.00000 54 90 150
588.00000 504.00000 76.00000 54 90 150
588.00000 504.00000 78.00000 54 93 152
588.00000 506.00000 78.00000 56 96 157
576.00000 502.00000 80.00000 52 87 141
576.00000 504.00000 80.00000 52 87 141
576.00000 506.00000 82.00000 53 88 142
578.00000 506.00000 82.00000 53 90 145
578.00000 508.00000 82.00000 53 90 145
576.00000 508.00000 84.00000 53 90 145
576.00000 510.00000 86.00000 55 92 149
578.00000 508.00000 84.00000 54 91 146
578.00000 510.00000 84.00000 55 92 149
578.00000 510.00000 86.00000 55 92 149
580.00000 504.00000 80.00000 52 87 141
580.00000 506.00000 82.00000 54 91 146
582.00000 506.00000 80.00000 53 90 145
580.00000 508.00000 82.00000 53 90 145
582.00000 510.00000 84.00000 55 92 149
584.00000 506.00000 80.00000 53 92 151
586.00000 506.00000 80.00000 55 94 155
584.00000 510.00000 82.00000 54 93 152
586.00000 508.00000 82.00000 55 94 155
586.00000 510.00000 82.00000 55 94 153
588.00000 508.00000 80.00000 56 95 156
588.00000 510.00000 82.00000 55 94 153
592.00000 484.00000 64.00000 48 88 139
592.00000 486.00000 64.00000 49 86 138
594.00000 486.00000 64.00000 44 83 137
594.00000 488.00000 66.00000 40 79 133
594.00000 490.00000 66.00000 41 78 132
594.00000 492.00000 66.00000 42 77 131
592.00000 494.00000 68.00000 43 76 131
594.00000 494.00000 68.00000 42 75 130
596.00000 488.00000 64.00000 41 78 130
598.00000 488.00000 64.00000 42 79 131
596.00000 492.00000 66.00000 41 76 128
596.00000 494.00000 66.00000 42 75 128
598.00000 494.00000 66.00000 42 75 126
600.00000 490.00000 64.00000 42 77 123
602.00000 490.00000 64.00000 42 77 123
600.00000 492.00000 66.00000 41 76 124
600.00000 494.00000 66.00000 41 75 123
602.00000 492.00000 64.00000 42 76 122
604.00000 492.00000 64.00000 41 76 122
592.00000 498.00000 70.00000 46 77 132
594.00000 496.00000 68.00000 44 75 128
594.00000 496.00000 70.00000 42 75 130
596.00000 496.00000 68.00000 41 74 127
598.00000 498.00000 68.00000 42 73 124
598.00000 498.00000 70.00000 42 73 124
592.00000 500.00000 72.00000 47 80 136
592.00000 502.00000 74.00000 49 82 138
596.00000 502.00000 72.00000 44 77 132
598.00000 502.00000 72.00000 44 77 132
594.00000 506.00000 78.00000 50 89 148
594.00000 508.00000 78.00000 51 87 147
598.00000 504.00000 72.00000 45 78 133
598.00000 506.00000 74.00000 46 80 136
596.00000 508.00000 76.00000 48 85 142
596.00000 508.00000 78.00000 49 86 143
598.00000 510.00000 78.00000 48 85 142
602.00000 496.00000 66.00000 42 73 120
600.00000 496.00000 68.00000 42 73 122
600.00000 498.00000 68.00000 42 73 122
602.00000 498.00000 68.00000 41 72 121
600.00000 500.00000 68.00000 42 73 124
600.00000 502.00000 70.00000 42 75 128
602.00000 500.00000 68.00000 42 73 122
606.00000 496.00000 66.00000 41 73 117
606.00000 498.00000 66.00000 41 73 117
604.00000 500.00000 68.00000 41 72 121
604.00000 502.00000 70.00000 41 74 125
606.00000 500.00000 68.00000 41 72 121
606.00000 502.00000 68.00000 41 72 121
606.00000 502.00000 70.00000 42 73 122
600.00000 506.00000 74.00000 44 78 134
602.00000 504.00000 72.00000 43 78 132
602.00000 506.00000 74.00000 44 78 134
602.00000 508.00000 74.00000 43 77 135
600.00000 508.00000 78.00000 46 83 140
600.00000 510.00000 78.00000 46 83 140
602.00000 510.00000 78.00000 44 81 138
604.00000 504.00000 72.00000 42 77 131
604.00000 506.00000 72.00000 42 76 132
606.00000 506.00000 72.00000 41 75 131
604.00000 508.00000 74.00000 43 77 135
594.00000 510.00000 80.00000 51 90 149
608.00000 494.00000 64.00000 42 74 115
610.00000 494.00000 64.00000 42 72 114
608.00000 496.00000 66.00000 41 73 117
608.00000 498.00000 66.00000 41 72 119
610.00000 496.00000 64.00000 42 72 114
608.00000 500.00000 66.00000 41 72 119
610.00000 500.00000 66.00000 41 72 119
608.00000 502.00000 68.00000 41 72 121
612.00000 496.00000 64.00000 41 71 113
614.00000 496.00000 64.00000 42 70 110
614.00000 498.00000 64.00000 42 70 112
612.00000 500.00000 66.00000 40 72 116
614.00000 500.00000 66.00000 40 70 113
612.00000 502.00000 68.00000 41 72 121
610.00000 504.00000 70.00000 40 73 126
612.00000 504.00000 68.00000 41 72 123
614.00000 504.00000 68.00000 41 72 123
614.00000 506.00000 68.00000 41 72 123
614.00000 506.00000 70.00000 41 72 123
608.00000 506.00000 72.00000 39 73 129
608.00000 508.00000 72.00000 39 73 129
608.00000 510.00000 74.00000 39 73 133
610.00000 508.00000 72.00000 39 73 129
610.00000 510.00000 74.00000 39 73 131
616.00000 498.00000 64.00000 41 69 111
616.00000 500.00000 66.00000 42 70 113
618.00000 500.00000 64.00000 42 69 111
618.00000 502.00000 66.00000 44 70 114
620.00000 500.00000 64.00000 42 69 111
622.00000 500.00000 64.00000 43 67 110
622.00000 502.00000 64.00000 43 67 110
618.00000 504.00000 66.00000 43 71 114
616.00000 506.00000 68.00000 41 72 121
618.00000 506.00000 68.00000 43 73 122
618.00000 508.00000 70.00000 42 73 124
620.00000 504.00000 66.00000 43 69 113
622.00000 504.00000 66.00000 43 69 113
620.00000 506.00000 68.00000 45 72 120
620.00000 508.00000 68.00000 45 72 120
620.00000 508.00000 70.00000 43 73 122
620.00000 510.00000 70.00000 45 72 120
622.00000 508.00000 68.00000 46 72 118
616.00000 510.00000 72.00000 43 73 122
618.00000 510.00000 72.00000 43 73 122
620.00000 510.00000 72.00000 43 73 122
624.00000 502.00000 64.00000 43 67 110
624.00000 504.00000 64.00000 47 69 112
626.00000 506.00000 66.00000 50 72 113
626.00000 508.00000 66.00000 50 72 115
624.00000 508.00000 68.00000 46 72 118
624.00000 510.00000 68.00000 46 72 118
624.00000 510.00000 70.00000 46 72 118
626.00000 510.00000 68.00000 46 72 118
628.00000 504.00000 64.00000 51 71 113
628.00000 506.00000 64.00000 52 72 114
630.00000 506.00000 64.00000 52 72 114
642.00000 258.00000 6.00000 45 80 116
642.00000 262.00000 6.00000 45 80 116
644.00000 258.00000 8.00000 42 77 113
646.00000 256.00000 10.00000 37 72 108
644.00000 262.00000 8.00000 45 80 116
642.00000 268.00000 8.00000 44 80 116
648.00000 256.00000 14.00000 33 68 104
648.00000 262.00000 14.00000 36 71 109
648.00000 266.00000 14.00000 39 74 112
648.00000 268.00000 14.00000 39 74 112
652.00000 256.00000 18.00000 30 65 101
652.00000 260.00000 18.00000 33 68 106
654.00000 266.00000 18.00000 30 65 103
654.00000 266.00000 20.00000 29 64 102
654.00000 270.00000 20.00000 30 65 103
642.00000 274.00000 8.00000 87 100 109
644.00000 274.00000 10.00000 75 94 111
646.00000 272.00000 14.00000 49 78 113
644.00000 278.00000 12.00000 70 89 117
646.00000 278.00000 14.00000 65 86 116
640.00000 280.00000 6.00000 163 139 96
640.00000 280.00000 8.00000 155 134 99
640.00000 284.00000 8.00000 159 138 105
642.00000 284.00000 8.00000 162 140 105
646.00000 284.00000 14.00000 95 101 120
650.00000 272.00000 16.00000 35 69 111
650.00000 278.00000 16.00000 38 69 116
654.00000 272.00000 20.00000 31 65 106
654.00000 276.00000 20.00000 32 66 108
650.00000 282.00000 18.00000 53 77 118
654.00000 282.00000 20.00000 36 67 116
656.00000 260.00000 20.00000 26 61 99
658.00000 260.00000 20.00000 26 61 99
662.00000 260.00000 20.00000 23 58 94
658.00000 266.00000 20.00000 28 63 101
660.00000 270.00000 20.00000 27 62 100
668.00000 258.00000 20.00000 24 59 97
664.00000 264.00000 20.00000 24 59 97
664.00000 270.00000 20.00000 27 62 100
668.00000 264.00000 20.00000 25 60 98
670.00000 268.00000 20.00000 24 60 98
656.00000 276.00000 20.00000 32 66 108
660.00000 276.00000 20.00000 28 63 101
656.00000 282.00000 20.00000 36 67 116
656.00000 286.00000 20.00000 38 67 121
662.00000 280.00000 20.00000 28 64 102
662.00000 286.00000 20.00000 32 66 108
666.00000 274.00000 20.00000 26 62 100
670.00000 274.00000 20.00000 26 62 98
666.00000 280.00000 20.00000 28 64 100
668.00000 284.00000 20.00000 30 66 100
642.00000 290.00000 8.00000 204 164 117
642.00000 292.00000 8.00000 191 155 117
646.00000 288.00000 14.00000 119 115 122
642.00000 296.00000 8.00000 153 130 115
642.00000 302.00000 8.00000 149 129 124
644.00000 300.00000 8.00000 149 128 117
648.00000 292.00000 14.00000 84 89 118
648.00000 294.00000 14.00000 76 83 117
648.00000 300.00000 14.00000 41 49 87
652.00000 288.00000 18.00000 57 77 124
654.00000 288.00000 20.00000 47 73 123
652.00000 294.00000 18.00000 43 67 132
654.00000 294.00000 20.00000 44 69 131
654.00000 300.00000 18.00000 47 72 134
654.00000 300.00000 20.00000 47 72 134
640.00000 306.00000 4.00000 171 142 83
644.00000 306.00000 8.00000 143 123 102
640.00000 312.00000 4.00000 202 159 35
640.00000 318.00000 4.00000 207 151 80
644.00000 312.00000 8.00000 152 127 91
646.00000 312.00000 8.00000 150 127 97
646.00000 316.00000 8.00000 148 128 125
648.00000 306.00000 14.00000 46 54 98
650.00000 306.00000 14.00000 45 53 95
650.00000 310.00000 14.00000 47 51 92
652.00000 316.00000 14.00000 47 55 95
654.00000 304.00000 20.00000 47 72 134
654.00000 310.00000 20.00000 48 70 135
654.00000 314.00000 20.00000 48 67 137
658.00000 292.00000 20.00000 43 72 128
658.00000 298.00000 20.00000 47 73 133
664.00000 292.00000 20.00000 44 74 125
668.00000 292.00000 20.00000 40 74 120
664.00000 298.00000 20.00000 48 77 133
664.00000 302.00000 22.00000 52 81 135
670.00000 296.00000 20.00000 43 77 123
670.00000 302.00000 22.00000 44 77 128
656.00000 310.00000 20.00000 48 70 135
660.00000 304.00000 22.00000 50 76 134
660.00000 308.00000 22.00000 49 75 135
656.00000 314.00000 20.00000 48 67 135
662.00000 314.00000 22.00000 43 69 133
662.00000 318.00000 24.00000 39 63 132
666.00000 308.00000 22.00000 45 74 131
666.00000 312.00000 22.00000 41 71 130
668.00000 318.00000 22.00000 35 65 128
672.00000 258.00000 20.00000 23 59 97
674.00000 262.00000 20.00000 24 60 98
676.00000 256.00000 20.00000 23 59 97
678.00000 256.00000 20.00000 23 59 97
678.00000 258.00000 20.00000 23 59 97
674.00000 268.00000 20.00000 24 60 98
680.00000 262.00000 20.00000 23 59 95
684.00000 256.00000 18.00000 21 59 99
684.00000 260.00000 20.00000 21 59 99
680.00000 266.00000 20.00000 22 61 98
686.00000 266.00000 20.00000 22 60 100
672.00000 278.00000 20.00000 25 64 97
676.00000 272.00000 20.00000 23 62 97
676.00000 278.00000 20.00000 25 64 95
672.00000 284.00000 20.00000 27 66 97
678.00000 284.00000 20.00000 25 67 93
680.00000 272.00000 20.00000 24 63 98
682.00000 278.00000 20.00000 23 64 97
686.00000 272.00000 20.00000 24 63 100
686.00000 276.00000 20.00000 22 63 98
682.00000 282.00000 20.00000 25 67 95
690.00000 260.00000 20.00000 21 59 100
694.00000 258.00000 20.00000 21 59 104
692.00000 260.00000 20.00000 21 59 102
690.00000 264.00000 20.00000 22 60 101
692.00000 270.00000 20.00000 22 63 103
700.00000 258.00000 20.00000 19 56 106
696.00000 264.00000 20.00000 19 59 104
696.00000 270.00000 20.00000 22 62 105
700.00000 264.00000 20.00000 19 59 106
702.00000 268.00000 20.00000 20 60 107
692.00000 276.00000 20.00000 23 64 104
688.00000 282.00000 20.00000 25 66 105
694.00000 280.00000 20.00000 24 66 110
694.00000 286.00000 20.00000 27 69 113
698.00000 274.00000 20.00000 23 63 108
702.00000 274.00000 20.00000 23 63 110
698.00000 280.00000 20.00000 24 66 110
700.00000 286.00000 20.00000 28 70 116
674.00000 290.00000 20.00000 31 70 103
678.00000 290.00000 20.00000 29 70 103
674.00000 296.00000 20.00000 39 74 118
676.00000 300.00000 22.00000 37 75 122
680.00000 294.00000 20.00000 29 71 110
684.00000 288.00000 20.00000 27 68 101
684.00000 294.00000 20.00000 29 71 110
680.00000 300.00000 20.00000 33 73 118
686.00000 298.00000 20.00000 31 73 115
672.00000 306.00000 22.00000 41 76 126
676.00000 306.00000 22.00000 37 74 124
678.00000 310.00000 22.00000 33 73 122
672.00000 312.00000 22.00000 37 70 126
672.00000 316.00000 22.00000 34 67 127
678.00000 316.00000 22.00000 34 71 125
682.00000 304.00000 22.00000 33 73 120
682.00000 310.00000 22.00000 33 73 122
686.00000 304.00000 22.00000 32 73 122
684.00000 316.00000 22.00000 34 73 127
688.00000 288.00000 20.00000 28 70 107
690.00000 292.00000 20.00000 29 71 111
690.00000 298.00000 20.00000 31 73 115
696.00000 292.00000 20.00000 29 73 119
700.00000 290.00000 20.00000 30 71 120
696.00000 296.00000 20.00000 31 75 123
696.00000 302.00000 22.00000 32 76 126
702.00000 296.00000 20.00000 33 77 127
702.00000 302.00000 22.00000 34 79 132
688.00000 310.00000 22.00000 33 73 124
692.00000 304.00000 20.00000 33 74 123
692.00000 308.00000 22.00000 33 74 125
688.00000 314.00000 22.00000 33 72 126
694.00000 314.00000 22.00000 34 73 128
694.00000 318.00000 22.00000 34 73 128
698.00000 308.00000 22.00000 34 75 129
702.00000 306.00000 22.00000 33 76 130
698.00000 312.00000 22.00000 33 74 128
700.00000 318.00000 22.00000 32 71 126
642.00000 322.00000 6.00000 234 156 92
640.00000 326.00000 4.00000 209 151 88
642.00000 324.00000 6.00000 217 154 98
642.00000 326.00000 6.00000 210 155 102
644.00000 322.00000 6.00000 207 148 99
644.00000 324.00000 6.00000 204 148 103
646.00000 322.00000 8.00000 162 129 102
646.00000 324.00000 8.00000 160 128 103
640.00000 328.00000 4.00000 211 155 90
640.00000 330.00000 4.00000 213 157 86
642.00000 328.00000 6.00000 203 158 106
642.00000 330.00000 6.00000 203 160 102
640.00000 334.00000 6.00000 210 174 86
642.00000 334.00000 6.00000 207 175 91
644.00000 330.00000 6.00000 198 161 106
644.00000 332.00000 6.00000 197 163 99
644.00000 334.00000 6.00000 205 177 111
644.00000 328.00000 8.00000 192 160 125
646.00000 328.00000 8.00000 167 146 116
646.00000 330.00000 8.00000 168 147 112
646.00000 332.00000 8.00000 192 171 126
646.00000 334.00000 8.00000 214 198 152
648.00000 322.00000 8.00000 156 126 103
648.00000 326.00000 10.00000 88 95 103
652.00000 320.00000 14.00000 47 52 81
652.00000 326.00000 14.00000 60 73 84
648.00000 328.00000 10.00000 105 108 103
648.00000 332.00000 10.00000 104 111 103
650.00000 334.00000 10.00000 111 118 107
652.00000 332.00000 14.00000 43 67 66
654.00000 326.00000 16.00000 55 71 91
654.00000 330.00000 16.00000 48 69 80
640.00000 336.00000 6.00000 207 177 84
640.00000 338.00000 4.00000 193 175 67
642.00000 336.00000 6.00000 209 182 92
642.00000 338.00000 6.00000 210 184 92
644.00000 338.00000 8.00000 224 199 123
646.00000 338.00000 8.00000 232 208 139
646.00000 342.00000 8.00000 255 254 196
640.00000 344.00000 6.00000 244 212 149
642.00000 350.00000 6.00000 255 206 188
646.00000 344.00000 8.00000 255 239 187
644.00000 348.00000 8.00000 255 216 182
646.00000 348.00000 8.00000 255 218 184
650.00000 338.00000 10.00000 171 167 138
650.00000 342.00000 12.00000 129 123 101
652.00000 336.00000 14.00000 76 94 92
652.00000 342.00000 14.00000 127 125 104
652.00000 348.00000 14.00000 72 77 86
654.00000 336.00000 18.00000 67 91 106
654.00000 336.00000 20.00000 68 92 110
656.00000 320.00000 20.00000 46 63 109
658.00000 320.00000 22.00000 45 65 114
656.00000 326.00000 20.00000 46 68 107
658.00000 324.00000 22.00000 45 67 110
656.00000 330.00000 20.00000 45 67 102
660.00000 330.00000 22.00000 37 62 117
668.00000 324.00000 22.00000 30 55 129
664.00000 324.00000 24.00000 33 59 127
670.00000 328.00000 22.00000 29 57 128
664.00000 330.00000 24.00000 35 61 121
666.00000 334.00000 24.00000 35 62 118
670.00000 334.00000 24.00000 30 58 124
656.00000 340.00000 20.00000 86 112 132
656.00000 342.00000 20.00000 80 106 128
660.00000 336.00000 24.00000 53 82 110
662.00000 340.00000 24.00000 47 77 96
656.00000 346.00000 20.00000 66 85 113
662.00000 346.00000 24.00000 42 71 106
662.00000 350.00000 24.00000 41 69 111
666.00000 340.00000 24.00000 42 71 106
668.00000 344.00000 24.00000 40 68 110
668.00000 346.00000 24.00000 37 67 110
668.00000 350.00000 24.00000 38 70 112
642.00000 354.00000 6.00000 231 194 60
644.00000 354.00000 8.00000 211 177 93
642.00000 364.00000 8.00000 249 185 54
644.00000 360.00000 8.00000 239 201 119
644.00000 362.00000 8.00000 234 190 98
644.00000 364.00000 8.00000 246 187 67
648.00000 354.00000 10.00000 124 109 92
648.00000 358.00000 10.00000 132 118 93
652.00000 352.00000 14.00000 80 83 92
652.00000 358.00000 14.00000 90 97 107
650.00000 364.00000 12.00000 82 101 117
652.00000 364.00000 14.00000 82 98 115
654.00000 358.00000 16.00000 71 87 111
654.00000 362.00000 16.00000 55 82 114
640.00000 370.00000 6.00000 248 178 68
642.00000 370.00000 8.00000 250 178 66
644.00000 370.00000 8.00000 250 176 67
646.00000 374.00000 10.00000 255 168 75
640.00000 376.00000 8.00000 239 174 83
642.00000 376.00000 8.00000 241 173 85
642.00000 380.00000 8.00000 230 174 91
642.00000 382.00000 8.00000 229 173 90
646.00000 380.00000 10.00000 224 162 88
650.00000 368.00000 14.00000 120 115 106
650.00000 374.00000 14.00000 195 142 88
652.00000 368.00000 14.00000 110 110 108
650.00000 380.00000 14.00000 181 139 97
652.00000 380.00000 14.00000 185 141 95
656.00000 352.00000 20.00000 43 64 113
658.00000 352.00000 20.00000 42 65 114
656.00000 358.00000 20.00000 39 69 114
658.00000 356.00000 22.00000 40 68 113
662.00000 356.00000 24.00000 38 70 112
658.00000 362.00000 20.00000 37 71 115
660.00000 362.00000 22.00000 34 72 119
662.00000 362.00000 24.00000 28 72 122
664.00000 352.00000 24.00000 39 69 111
664.00000 356.00000 24.00000 38 70 112
668.00000 354.00000 24.00000 36 70 114
670.00000 354.00000 24.00000 34 69 115
664.00000 362.00000 24.00000 28 72 122
664.00000 366.00000 24.00000 22 73 127
666.00000 366.00000 24.00000 23 73 125
670.00000 360.00000 24.00000 27 70 123
670.00000 366.00000 24.00000 26 71 123
656.00000 368.00000 18.00000 130 145 162
658.00000 368.00000 20.00000 84 109 138
656.00000 374.00000 18.00000 106 102 99
658.00000 374.00000 20.00000 96 100 103
660.00000 368.00000 22.00000 42 78 119
662.00000 372.00000 22.00000 64 87 114
658.00000 378.00000 18.00000 103 103 103
658.00000 378.00000 20.00000 99 101 103
658.00000 380.00000 20.00000 96 99 105
662.00000 378.00000 22.00000 69 89 110
664.00000 372.00000 24.00000 43 78 114
666.00000 372.00000 26.00000 29 71 117
664.00000 378.00000 24.00000 58 84 110
664.00000 382.00000 24.00000 56 81 110
668.00000 376.00000 26.00000 31 69 110
668.00000 382.00000 26.00000 41 73 108
674.00000 322.00000 22.00000 33 62 130
678.00000 322.00000 22.00000 34 67 127
674.00000 328.00000 22.00000 30 57 131
676.00000 332.00000 22.00000 28 57 134
680.00000 326.00000 22.00000 33 67 131
684.00000 320.00000 22.00000 36 73 128
686.00000 326.00000 22.00000 36 73 130
680.00000 332.00000 22.00000 28 59 134
686.00000 330.00000 22.00000 33 69 129
676.00000 338.00000 22.00000 22 50 135
678.00000 342.00000 22.00000 25 56 131
672.00000 338.00000 24.00000 29 57 127
672.00000 344.00000 24.00000 34 63 119
674.00000 348.00000 24.00000 29 62 122
678.00000 348.00000 24.00000 28 62 124
682.00000 336.00000 22.00000 28 61 131
682.00000 342.00000 22.00000 26 59 129
686.00000 336.00000 22.00000 30 63 130
684.00000 348.00000 22.00000 26 65 124
690.00000 320.00000 22.00000 34 73 128
690.00000 324.00000 22.00000 35 72 129
692.00000 330.00000 22.00000 33 70 125
692.00000 334.00000 22.00000 31 68 123
696.00000 324.00000 22.00000 33 70 125
700.00000 322.00000 22.00000 31 70 125
696.00000 328.00000 22.00000 32 69 124
698.00000 334.00000 22.00000 30 64 120
702.00000 328.00000 22.00000 30 67 122
702.00000 334.00000 22.00000 29 64 118
688.00000 342.00000 22.00000 28 65 122
692.00000 340.00000 22.00000 30 67 122
688.00000 346.00000 22.00000 27 66 121
694.00000 346.00000 22.00000 28 65 120
694.00000 350.00000 22.00000 27 64 118
698.00000 340.00000 22.00000 28 65 120
698.00000 344.00000 22.00000 27 64 119
700.00000 350.00000 22.00000 26 63 117
674.00000 354.00000 24.00000 26 65 124
672.00000 360.00000 24.00000 25 70 123
674.00000 360.00000 24.00000 25 70 123
674.00000 364.00000 24.00000 25 70 122
676.00000 364.00000 24.00000 25 70 122
676.00000 366.00000 24.00000 26 70 120
680.00000 354.00000 24.00000 24 64 123
680.00000 358.00000 24.00000 25 66 122
684.00000 352.00000 24.00000 25 66 122
686.00000 358.00000 24.00000 24 67 121
682.00000 364.00000 24.00000 23 68 121
686.00000 362.00000 24.00000 24 67 121
672.00000 370.00000 24.00000 26 70 118
676.00000 370.00000 24.00000 28 70 116
678.00000 370.00000 24.00000 28 68 115
678.00000 374.00000 24.00000 32 68 109
672.00000 376.00000 26.00000 31 69 109
674.00000 380.00000 26.00000 35 67 102
678.00000 380.00000 24.00000 33 68 106
682.00000 368.00000 24.00000 24 67 120
682.00000 372.00000 24.00000 29 67 112
682.00000 374.00000 24.00000 29 67 112
684.00000 378.00000 24.00000 29 67 112
686.00000 378.00000 24.00000 30 68 115
690.00000 352.00000 22.00000 26 65 120
690.00000 356.00000 24.00000 25 66 120
692.00000 362.00000 24.00000 24 65 118
692.00000 366.00000 24.00000 25 66 120
696.00000 356.00000 22.00000 24 63 117
700.00000 354.00000 22.00000 25 62 116
696.00000 360.00000 22.00000 25 64 119
698.00000 366.00000 22.00000 27 66 121
702.00000 360.00000 22.00000 28 65 120
702.00000 364.00000 22.00000 32 69 124
688.00000 368.00000 24.00000 23 66 120
688.00000 372.00000 24.00000 25 66 119
694.00000 372.00000 24.00000 25 66 119
694.00000 378.00000 22.00000 38 73 127
688.00000 378.00000 24.00000 30 68 115
698.00000 372.00000 22.00000 33 70 124
696.00000 382.00000 22.00000 42 75 128
700.00000 376.00000 22.00000 42 75 130
700.00000 382.00000 22.00000 46 77 130
704.00000 258.00000 20.00000 18 58 107
706.00000 262.00000 20.00000 18 58 107
710.00000 256.00000 20.00000 19 59 108
710.00000 262.00000 20.00000 19 59 110
706.00000 268.00000 20.00000 20 60 109
716.00000 256.00000 20.00000 21 58 110
716.00000 260.00000 20.00000 21 58 110
712.00000 266.00000 20.00000 21 61 112
718.00000 266.00000 20.00000 21 61 112
718.00000 270.00000 20.00000 22 62 113
704.00000 278.00000 20.00000 23 64 113
708.00000 272.00000 20.00000 21 61 112
708.00000 278.00000 20.00000 25 66 115
704.00000 284.00000 20.00000 29 70 119
710.00000 284.00000 20.00000 36 77 128
712.00000 272.00000 20.00000 23 63 114
714.00000 276.00000 20.00000 26 67 118
718.00000 276.00000 20.00000 25 65 116
714.00000 282.00000 20.00000 33 74 125
722.00000 260.00000 20.00000 22 60 107
726.00000 258.00000 20.00000 24 59 105
722.00000 264.00000 20.00000 23 60 110
724.00000 270.00000 20.00000 23 63 112
732.00000 258.00000 20.00000 27 61 105
732.00000 262.00000 20.00000 25 59 101
728.00000 264.00000 20.00000 25 60 106
728.00000 268.00000 20.00000 24 62 109
734.00000 268.00000 20.00000 36 71 119
724.00000 274.00000 20.00000 25 65 116
720.00000 282.00000 20.00000 36 77 130
726.00000 282.00000 20.00000 42 82 133
726.00000 286.00000 20.00000 44 84 135
730.00000 274.00000 20.00000 39 76 126
734.00000 274.00000 20.00000 42 79 129
730.00000 280.00000 20.00000 42 82 133
734.00000 280.00000 20.00000 45 82 132
732.00000 286.00000 20.00000 46 85 139
706.00000 290.00000 20.00000 32 76 124
710.00000 290.00000 20.00000 37 78 129
706.00000 296.00000 22.00000 36 80 130
708.00000 300.00000 22.00000 35 78 131
712.00000 294.00000 22.00000 39 82 135
716.00000 288.00000 20.00000 47 88 141
716.00000 294.00000 22.00000 41 84 137
712.00000 300.00000 22.00000 38 81 134
718.00000 298.00000 22.00000 40 83 136
708.00000 306.00000 22.00000 32 75 128
710.00000 310.00000 22.00000 32 72 123
704.00000 312.00000 22.00000 31 72 125
704.00000 316.00000 22.00000 31 70 124
710.00000 316.00000 22.00000 28 67 121
714.00000 304.00000 22.00000 36 76 127
714.00000 310.00000 22.00000 34 71 121
718.00000 304.00000 20.00000 40 80 131
716.00000 314.00000 22.00000 38 72 118
734.00000 300.00000 14.00000 34 75 131
734.00000 302.00000 14.00000 39 76 128
720.00000 288.00000 20.00000 43 84 137
722.00000 292.00000 20.00000 42 83 136
726.00000 292.00000 20.00000 42 83 136
722.00000 298.00000 20.00000 42 82 133
724.00000 302.00000 20.00000 46 81 129
732.00000 290.00000 18.00000 49 88 142
732.00000 290.00000 20.00000 48 87 141
728.00000 296.00000 20.00000 42 83 137
728.00000 298.00000 20.00000 41 82 136
730.00000 296.00000 20.00000 42 83 137
728.00000 302.00000 18.00000 43 80 132
728.00000 302.00000 20.00000 43 80 132
732.00000 296.00000 18.00000 41 82 136
734.00000 300.00000 16.00000 36 77 131
732.00000 306.00000 14.00000 52 83 122
734.00000 306.00000 12.00000 49 79 121
730.00000 312.00000 14.00000 74 97 127
730.00000 314.00000 14.00000 87 108 139
730.00000 318.00000 14.00000 101 120 150
732.00000 312.00000 14.00000 71 94 124
732.00000 318.00000 12.00000 144 162 190
720.00000 308.00000 20.00000 44 76 120
724.00000 308.00000 20.00000 51 81 123
726.00000 308.00000 20.00000 51 81 124
720.00000 314.00000 20.00000 48 75 115
722.00000 318.00000 20.00000 42 69 107
726.00000 314.00000 18.00000 51 74 104
724.00000 314.00000 20.00000 48 73 107
726.00000 318.00000 16.00000 42 61 89
730.00000 306.00000 16.00000 53 83 125
750.00000 260.00000 14.00000 73 97 141
748.00000 264.00000 14.00000 74 98 142
748.00000 266.00000 12.00000 62 97 149
748.00000 266.00000 14.00000 66 96 143
750.00000 270.00000 8.00000 0 91 185
736.00000 256.00000 20.00000 33 65 109
738.00000 262.00000 20.00000 42 74 118
742.00000 256.00000 20.00000 49 79 124
742.00000 258.00000 20.00000 51 81 126
742.00000 260.00000 18.00000 56 84 129
742.00000 262.00000 20.00000 51 81 126
738.00000 268.00000 20.00000 36 71 117
740.00000 266.00000 20.00000 42 76 120
748.00000 260.00000 16.00000 71 95 139
744.00000 266.00000 18.00000 57 87 130
740.00000 280.00000 14.00000 54 91 141
740.00000 284.00000 14.00000 98 133 181
742.00000 284.00000 12.00000 73 108 156
750.00000 276.00000 6.00000 50 70 91
746.00000 272.00000 14.00000 87 114 152
746.00000 274.00000 14.00000 84 111 149
746.00000 278.00000 10.00000 69 98 133
744.00000 278.00000 14.00000 68 98 141
750.00000 272.00000 8.00000 11 87 161
748.00000 276.00000 8.00000 58 81 110
746.00000 282.00000 8.00000 57 84 118
738.00000 272.00000 20.00000 43 78 124
736.00000 278.00000 20.00000 44 81 131
740.00000 272.00000 18.00000 42 77 123
740.00000 272.00000 20.00000 42 77 123
740.00000 278.00000 16.00000 63 98 146
736.00000 280.00000 18.00000 49 86 136
736.00000 284.00000 16.00000 59 96 146
744.00000 272.00000 16.00000 81 108 148
758.00000 258.00000 6.00000 124 124 166
754.00000 260.00000 8.00000 77 83 144
754.00000 262.00000 8.00000 65 70 137
756.00000 270.00000 6.00000 119 149 152
754.00000 264.00000 8.00000 46 53 129
764.00000 258.00000 6.00000 186 187 131
764.00000 262.00000 6.00000 214 217 116
760.00000 264.00000 6.00000 162 168 125
760.00000 268.00000 6.00000 168 176 130
766.00000 268.00000 6.00000 198 181 103
756.00000 276.00000 6.00000 145 154 162
