ply
format ascii 1.0
element vertex 1202
property float x
property float y
property float z
property uchar red
property uchar green
property uchar blue
element face 0
property list uint8 int32 vertex_index
end_header
908.00000 224.00000 104.00000 29 57 100
908.00000 228.00000 104.00000 30 58 101
904.00000 232.00000 100.00000 31 59 104
904.00000 236.00000 100.00000 32 60 105
908.00000 232.00000 104.00000 30 58 103
908.00000 236.00000 104.00000 31 59 104
900.00000 240.00000 96.00000 42 70 115
900.00000 244.00000 96.00000 47 75 120
900.00000 248.00000 96.00000 54 82 127
900.00000 252.00000 96.00000 51 81 126
900.00000 252.00000 100.00000 45 75 122
904.00000 240.00000 100.00000 37 65 110
904.00000 244.00000 100.00000 38 68 113
908.00000 244.00000 104.00000 34 64 111
904.00000 248.00000 100.00000 44 74 119
904.00000 252.00000 100.00000 43 73 120
908.00000 248.00000 104.00000 32 62 109
908.00000 252.00000 104.00000 32 62 111
912.00000 224.00000 108.00000 28 56 101
912.00000 232.00000 108.00000 27 57 102
912.00000 236.00000 108.00000 28 58 103
916.00000 224.00000 112.00000 24 54 99
916.00000 232.00000 112.00000 25 55 100
916.00000 236.00000 112.00000 26 56 103
920.00000 224.00000 116.00000 23 53 98
920.00000 228.00000 116.00000 24 54 99
920.00000 224.00000 120.00000 23 53 98
920.00000 228.00000 120.00000 24 54 101
924.00000 224.00000 124.00000 24 54 101
924.00000 228.00000 120.00000 24 54 101
924.00000 228.00000 124.00000 24 54 101
920.00000 236.00000 116.00000 25 55 102
920.00000 232.00000 120.00000 24 54 101
920.00000 236.00000 120.00000 26 56 103
924.00000 232.00000 120.00000 25 55 102
924.00000 232.00000 124.00000 25 55 102
924.00000 236.00000 120.00000 25 55 102
924.00000 236.00000 124.00000 26 56 103
912.00000 240.00000 108.00000 28 58 105
912.00000 244.00000 108.00000 30 60 107
912.00000 248.00000 108.00000 30 60 107
912.00000 252.00000 108.00000 31 61 108
916.00000 240.00000 112.00000 28 58 105
916.00000 244.00000 112.00000 29 59 106
916.00000 248.00000 112.00000 30 60 107
916.00000 248.00000 116.00000 30 60 107
916.00000 252.00000 112.00000 30 60 107
920.00000 240.00000 120.00000 27 57 104
924.00000 240.00000 124.00000 27 57 104
924.00000 244.00000 124.00000 28 58 105
920.00000 252.00000 116.00000 30 60 107
920.00000 248.00000 120.00000 30 60 107
920.00000 252.00000 120.00000 30 60 107
924.00000 248.00000 120.00000 30 60 107
924.00000 248.00000 124.00000 30 60 107
924.00000 252.00000 124.00000 32 62 109
928.00000 192.00000 124.00000 29 47 83
928.00000 196.00000 124.00000 25 49 88
928.00000 200.00000 124.00000 23 51 94
928.00000 204.00000 124.00000 23 51 94
928.00000 208.00000 124.00000 23 51 94
928.00000 212.00000 124.00000 22 52 97
928.00000 216.00000 124.00000 22 52 97
928.00000 220.00000 124.00000 23 53 100
928.00000 224.00000 124.00000 23 54 101
928.00000 228.00000 124.00000 24 55 102
928.00000 232.00000 124.00000 25 56 103
928.00000 252.00000 124.00000 31 61 108
928.00000 128.00000 128.00000 46 57 90
928.00000 128.00000 132.00000 42 53 88
928.00000 132.00000 128.00000 39 50 83
932.00000 132.00000 128.00000 34 45 80
932.00000 128.00000 136.00000 41 49 85
932.00000 128.00000 140.00000 34 42 78
932.00000 132.00000 136.00000 36 44 80
932.00000 136.00000 128.00000 34 45 80
936.00000 132.00000 132.00000 32 40 76
936.00000 128.00000 140.00000 29 37 73
936.00000 132.00000 136.00000 33 41 77
940.00000 132.00000 140.00000 22 30 66
936.00000 136.00000 132.00000 32 40 76
936.00000 140.00000 128.00000 35 46 79
936.00000 140.00000 132.00000 34 42 78
940.00000 136.00000 136.00000 28 36 72
940.00000 140.00000 136.00000 23 31 67
940.00000 128.00000 144.00000 59 66 104
940.00000 132.00000 144.00000 40 47 85
932.00000 148.00000 128.00000 35 46 79
932.00000 152.00000 128.00000 34 45 78
932.00000 156.00000 128.00000 34 45 78
936.00000 148.00000 128.00000 33 44 77
936.00000 148.00000 132.00000 32 43 76
940.00000 148.00000 136.00000 29 37 73
936.00000 152.00000 128.00000 33 44 77
936.00000 152.00000 132.00000 33 44 77
936.00000 156.00000 128.00000 34 45 78
936.00000 156.00000 132.00000 34 45 78
940.00000 152.00000 136.00000 32 40 76
940.00000 156.00000 136.00000 34 45 78
944.00000 136.00000 140.00000 15 23 61
944.00000 140.00000 140.00000 13 21 59
944.00000 128.00000 144.00000 53 60 98
944.00000 128.00000 152.00000 67 71 112
948.00000 128.00000 156.00000 54 56 98
944.00000 136.00000 144.00000 13 20 58
944.00000 140.00000 144.00000 6 13 51
948.00000 136.00000 144.00000 16 23 61
948.00000 136.00000 148.00000 21 28 66
948.00000 140.00000 144.00000 13 20 58
948.00000 140.00000 148.00000 19 26 64
948.00000 136.00000 152.00000 30 36 77
952.00000 132.00000 156.00000 48 52 93
952.00000 140.00000 152.00000 36 42 83
952.00000 140.00000 156.00000 38 46 86
956.00000 140.00000 156.00000 40 48 88
944.00000 144.00000 140.00000 17 25 63
944.00000 148.00000 140.00000 22 30 66
944.00000 152.00000 140.00000 27 35 71
944.00000 156.00000 140.00000 31 39 75
944.00000 144.00000 144.00000 18 26 64
944.00000 148.00000 144.00000 21 29 67
948.00000 144.00000 144.00000 16 24 62
948.00000 144.00000 148.00000 22 29 67
948.00000 148.00000 144.00000 22 30 68
948.00000 148.00000 148.00000 29 37 75
944.00000 152.00000 144.00000 27 35 71
944.00000 156.00000 144.00000 32 40 76
948.00000 152.00000 144.00000 28 36 74
948.00000 152.00000 148.00000 30 38 76
948.00000 156.00000 148.00000 34 42 80
948.00000 152.00000 152.00000 36 44 82
948.00000 156.00000 152.00000 35 43 81
952.00000 144.00000 152.00000 37 45 85
952.00000 144.00000 156.00000 38 46 86
952.00000 148.00000 152.00000 37 45 85
952.00000 148.00000 156.00000 37 45 85
956.00000 148.00000 156.00000 37 45 85
952.00000 152.00000 152.00000 36 44 84
952.00000 152.00000 156.00000 36 44 84
952.00000 156.00000 152.00000 33 43 83
952.00000 156.00000 156.00000 33 43 83
956.00000 152.00000 156.00000 34 44 84
952.00000 128.00000 160.00000 61 63 105
956.00000 132.00000 160.00000 56 59 98
956.00000 132.00000 164.00000 53 53 91
952.00000 128.00000 168.00000 44 43 81
956.00000 128.00000 172.00000 89 86 122
956.00000 132.00000 168.00000 57 56 94
956.00000 136.00000 164.00000 44 47 86
956.00000 140.00000 160.00000 40 46 87
956.00000 140.00000 164.00000 42 46 85
956.00000 144.00000 160.00000 37 43 84
956.00000 148.00000 160.00000 36 44 84
956.00000 152.00000 160.00000 33 43 85
956.00000 152.00000 164.00000 32 42 84
956.00000 156.00000 160.00000 30 43 84
956.00000 156.00000 164.00000 29 42 83
932.00000 160.00000 128.00000 32 45 78
932.00000 160.00000 132.00000 32 45 78
932.00000 164.00000 128.00000 32 45 78
932.00000 168.00000 128.00000 30 45 77
932.00000 172.00000 128.00000 30 45 77
936.00000 160.00000 132.00000 32 45 78
936.00000 164.00000 128.00000 32 45 78
936.00000 164.00000 132.00000 31 44 77
936.00000 164.00000 136.00000 30 45 79
940.00000 160.00000 136.00000 31 44 79
940.00000 164.00000 136.00000 30 45 79
940.00000 164.00000 140.00000 29 43 80
936.00000 168.00000 132.00000 30 45 79
936.00000 172.00000 132.00000 27 44 78
936.00000 168.00000 136.00000 28 45 81
936.00000 172.00000 136.00000 27 44 80
940.00000 168.00000 140.00000 27 44 82
940.00000 172.00000 140.00000 26 44 82
932.00000 176.00000 128.00000 28 45 77
932.00000 180.00000 128.00000 28 45 77
932.00000 184.00000 128.00000 28 45 79
932.00000 184.00000 132.00000 28 45 79
936.00000 176.00000 132.00000 26 44 80
936.00000 180.00000 132.00000 27 46 79
936.00000 176.00000 136.00000 26 44 80
936.00000 180.00000 136.00000 26 44 80
940.00000 176.00000 140.00000 23 43 83
940.00000 180.00000 140.00000 22 44 83
936.00000 184.00000 132.00000 27 45 81
936.00000 184.00000 136.00000 24 45 82
936.00000 188.00000 136.00000 22 46 87
940.00000 184.00000 136.00000 23 45 84
940.00000 184.00000 140.00000 22 44 83
940.00000 188.00000 136.00000 21 45 88
940.00000 188.00000 140.00000 20 44 85
940.00000 176.00000 144.00000 23 43 83
940.00000 188.00000 144.00000 18 45 87
944.00000 160.00000 140.00000 32 43 78
944.00000 164.00000 140.00000 30 43 80
944.00000 160.00000 144.00000 31 42 79
944.00000 164.00000 144.00000 29 42 81
944.00000 164.00000 148.00000 29 43 82
948.00000 160.00000 148.00000 32 42 82
948.00000 164.00000 148.00000 30 43 82
948.00000 160.00000 152.00000 30 43 82
948.00000 164.00000 152.00000 29 43 84
944.00000 168.00000 144.00000 26 43 81
944.00000 168.00000 148.00000 26 43 83
944.00000 172.00000 144.00000 25 43 83
948.00000 168.00000 148.00000 26 43 83
948.00000 172.00000 148.00000 22 42 84
948.00000 168.00000 152.00000 26 43 83
948.00000 172.00000 152.00000 24 42 84
952.00000 160.00000 152.00000 30 43 82
952.00000 160.00000 156.00000 29 42 83
952.00000 164.00000 156.00000 27 41 82
952.00000 168.00000 152.00000 25 41 84
952.00000 168.00000 156.00000 25 41 84
952.00000 172.00000 156.00000 24 42 84
944.00000 176.00000 144.00000 23 43 83
944.00000 176.00000 148.00000 21 43 84
944.00000 180.00000 144.00000 22 44 85
944.00000 180.00000 148.00000 21 43 84
948.00000 176.00000 148.00000 21 43 84
948.00000 180.00000 148.00000 19 43 84
948.00000 176.00000 152.00000 21 43 84
948.00000 180.00000 152.00000 21 43 86
944.00000 184.00000 144.00000 19 43 84
944.00000 188.00000 144.00000 18 46 89
944.00000 188.00000 148.00000 16 44 87
948.00000 184.00000 148.00000 19 43 86
948.00000 188.00000 148.00000 19 47 90
948.00000 184.00000 152.00000 19 43 86
948.00000 188.00000 152.00000 19 45 89
952.00000 176.00000 152.00000 22 44 87
952.00000 176.00000 156.00000 23 43 87
952.00000 180.00000 152.00000 22 44 87
952.00000 180.00000 156.00000 22 44 87
952.00000 184.00000 156.00000 20 44 88
952.00000 188.00000 156.00000 24 50 94
952.00000 160.00000 160.00000 28 42 83
952.00000 164.00000 160.00000 27 41 84
956.00000 160.00000 160.00000 28 42 83
956.00000 160.00000 164.00000 27 41 84
956.00000 164.00000 160.00000 27 41 84
956.00000 164.00000 164.00000 24 40 83
952.00000 168.00000 160.00000 24 42 84
952.00000 172.00000 160.00000 22 42 86
956.00000 168.00000 160.00000 24 42 84
956.00000 168.00000 164.00000 24 42 86
956.00000 172.00000 160.00000 22 42 86
956.00000 172.00000 164.00000 22 42 86
952.00000 176.00000 160.00000 22 44 87
952.00000 180.00000 160.00000 21 45 89
956.00000 176.00000 160.00000 22 43 88
956.00000 176.00000 164.00000 22 43 88
956.00000 180.00000 160.00000 21 45 89
956.00000 180.00000 164.00000 22 46 90
956.00000 180.00000 168.00000 23 47 91
952.00000 184.00000 160.00000 23 47 91
952.00000 188.00000 160.00000 24 50 94
956.00000 184.00000 160.00000 21 47 91
956.00000 184.00000 164.00000 22 48 94
956.00000 188.00000 160.00000 23 49 95
956.00000 188.00000 164.00000 25 51 97
956.00000 184.00000 168.00000 25 49 95
956.00000 188.00000 168.00000 27 53 99
928.00000 196.00000 128.00000 25 49 90
932.00000 192.00000 128.00000 24 48 87
932.00000 192.00000 132.00000 24 48 89
932.00000 196.00000 128.00000 23 50 90
928.00000 200.00000 128.00000 23 51 93
928.00000 204.00000 128.00000 23 51 96
932.00000 200.00000 128.00000 23 51 94
932.00000 200.00000 132.00000 23 51 94
932.00000 204.00000 128.00000 21 51 96
936.00000 192.00000 132.00000 22 49 89
936.00000 196.00000 132.00000 22 50 93
936.00000 192.00000 136.00000 21 48 90
936.00000 196.00000 136.00000 21 49 92
940.00000 192.00000 136.00000 20 47 89
940.00000 192.00000 140.00000 18 46 89
940.00000 196.00000 136.00000 21 49 92
940.00000 196.00000 140.00000 20 48 91
936.00000 200.00000 132.00000 21 51 96
936.00000 204.00000 132.00000 22 52 97
936.00000 200.00000 136.00000 21 51 96
936.00000 204.00000 136.00000 21 52 99
940.00000 200.00000 136.00000 20 50 95
940.00000 200.00000 140.00000 22 52 97
940.00000 204.00000 140.00000 22 53 100
940.00000 204.00000 144.00000 23 54 101
928.00000 208.00000 128.00000 22 52 97
928.00000 212.00000 128.00000 22 52 97
932.00000 208.00000 128.00000 22 52 97
932.00000 212.00000 128.00000 22 52 97
932.00000 212.00000 132.00000 22 53 100
928.00000 216.00000 128.00000 23 53 100
928.00000 220.00000 128.00000 22 53 100
932.00000 216.00000 128.00000 22 53 100
932.00000 216.00000 132.00000 23 54 101
932.00000 220.00000 128.00000 23 54 101
936.00000 212.00000 136.00000 24 55 102
940.00000 212.00000 140.00000 25 59 107
936.00000 220.00000 132.00000 22 56 104
936.00000 216.00000 136.00000 25 56 103
936.00000 220.00000 136.00000 24 58 106
940.00000 216.00000 140.00000 25 59 107
940.00000 220.00000 140.00000 24 58 106
940.00000 212.00000 144.00000 25 59 107
940.00000 216.00000 144.00000 26 60 108
940.00000 220.00000 144.00000 25 60 110
944.00000 192.00000 144.00000 21 49 92
944.00000 192.00000 148.00000 23 53 96
944.00000 196.00000 144.00000 23 53 98
944.00000 196.00000 148.00000 27 57 102
948.00000 192.00000 148.00000 24 52 95
948.00000 192.00000 152.00000 26 56 101
948.00000 192.00000 156.00000 29 59 104
944.00000 200.00000 144.00000 24 54 99
944.00000 200.00000 148.00000 29 59 104
944.00000 204.00000 144.00000 24 55 102
948.00000 200.00000 152.00000 43 74 121
948.00000 204.00000 152.00000 48 83 133
948.00000 204.00000 156.00000 56 91 141
952.00000 192.00000 156.00000 33 63 110
952.00000 196.00000 156.00000 37 68 115
952.00000 200.00000 156.00000 43 77 125
952.00000 204.00000 156.00000 51 86 136
944.00000 208.00000 144.00000 26 57 104
944.00000 212.00000 144.00000 25 59 107
948.00000 208.00000 152.00000 47 84 136
948.00000 208.00000 156.00000 48 85 137
948.00000 212.00000 152.00000 40 80 131
948.00000 212.00000 156.00000 42 79 131
944.00000 216.00000 144.00000 26 61 111
944.00000 220.00000 144.00000 28 63 113
944.00000 220.00000 148.00000 30 67 119
948.00000 216.00000 152.00000 35 74 128
948.00000 220.00000 152.00000 31 72 126
948.00000 220.00000 156.00000 28 71 125
952.00000 208.00000 156.00000 49 84 134
952.00000 212.00000 156.00000 43 80 132
952.00000 192.00000 160.00000 30 58 103
952.00000 196.00000 160.00000 39 70 117
956.00000 192.00000 160.00000 30 60 107
956.00000 192.00000 164.00000 33 63 110
956.00000 196.00000 160.00000 36 67 114
956.00000 196.00000 164.00000 38 69 118
956.00000 192.00000 168.00000 31 61 108
956.00000 196.00000 168.00000 35 66 113
952.00000 200.00000 160.00000 45 79 127
952.00000 204.00000 160.00000 44 78 126
956.00000 200.00000 164.00000 40 71 120
956.00000 204.00000 164.00000 41 75 123
956.00000 200.00000 168.00000 39 70 119
956.00000 204.00000 168.00000 38 72 120
952.00000 208.00000 160.00000 45 80 130
952.00000 208.00000 164.00000 44 79 129
952.00000 212.00000 160.00000 39 76 128
952.00000 212.00000 164.00000 42 77 127
956.00000 208.00000 164.00000 41 74 125
956.00000 208.00000 168.00000 36 70 118
956.00000 212.00000 168.00000 35 70 120
952.00000 220.00000 160.00000 29 68 122
952.00000 220.00000 164.00000 28 67 121
956.00000 220.00000 164.00000 28 68 119
956.00000 216.00000 168.00000 29 66 118
956.00000 220.00000 168.00000 29 66 118
928.00000 224.00000 128.00000 24 55 102
928.00000 228.00000 128.00000 25 56 103
932.00000 224.00000 128.00000 24 55 102
928.00000 232.00000 128.00000 26 57 106
932.00000 232.00000 128.00000 27 58 107
932.00000 232.00000 132.00000 26 60 108
932.00000 232.00000 136.00000 27 61 109
936.00000 224.00000 136.00000 25 59 107
936.00000 228.00000 136.00000 27 61 109
940.00000 228.00000 140.00000 29 64 114
936.00000 232.00000 136.00000 29 62 113
936.00000 232.00000 140.00000 29 64 114
936.00000 236.00000 136.00000 29 62 113
936.00000 236.00000 140.00000 30 65 115
940.00000 232.00000 140.00000 30 65 115
940.00000 236.00000 140.00000 31 66 116
940.00000 228.00000 144.00000 30 65 115
940.00000 232.00000 144.00000 30 65 115
940.00000 236.00000 144.00000 31 66 116
940.00000 236.00000 148.00000 32 67 117
928.00000 240.00000 128.00000 28 59 106
928.00000 244.00000 128.00000 29 60 107
932.00000 240.00000 128.00000 28 59 108
932.00000 240.00000 132.00000 30 61 110
932.00000 244.00000 132.00000 30 61 110
932.00000 240.00000 136.00000 28 62 110
932.00000 244.00000 136.00000 30 61 110
928.00000 248.00000 128.00000 30 60 107
928.00000 252.00000 128.00000 30 61 108
932.00000 248.00000 132.00000 30 61 110
932.00000 252.00000 132.00000 30 61 110
932.00000 248.00000 136.00000 30 61 110
936.00000 240.00000 136.00000 30 63 114
936.00000 240.00000 140.00000 30 65 115
936.00000 244.00000 136.00000 29 63 111
936.00000 244.00000 140.00000 30 64 112
940.00000 240.00000 140.00000 31 66 116
936.00000 248.00000 136.00000 31 62 111
936.00000 248.00000 140.00000 30 64 112
940.00000 240.00000 144.00000 31 66 116
940.00000 244.00000 144.00000 32 67 117
940.00000 248.00000 144.00000 32 67 117
940.00000 248.00000 148.00000 32 67 117
940.00000 252.00000 144.00000 33 66 117
944.00000 224.00000 144.00000 28 65 117
944.00000 224.00000 148.00000 29 68 122
944.00000 228.00000 152.00000 29 68 122
948.00000 224.00000 152.00000 29 70 123
948.00000 224.00000 156.00000 29 70 123
948.00000 228.00000 152.00000 29 68 122
948.00000 228.00000 156.00000 29 68 122
944.00000 232.00000 144.00000 31 66 116
944.00000 232.00000 152.00000 29 68 122
948.00000 232.00000 152.00000 29 68 122
948.00000 232.00000 156.00000 29 68 122
948.00000 236.00000 152.00000 31 68 120
948.00000 236.00000 156.00000 31 68 120
952.00000 224.00000 156.00000 29 70 123
952.00000 236.00000 156.00000 30 67 119
944.00000 244.00000 148.00000 32 67 117
944.00000 244.00000 152.00000 32 67 117
948.00000 240.00000 156.00000 31 68 120
948.00000 244.00000 156.00000 33 68 118
944.00000 248.00000 148.00000 33 68 118
944.00000 252.00000 148.00000 34 68 116
944.00000 248.00000 152.00000 34 67 118
944.00000 252.00000 152.00000 34 68 116
948.00000 248.00000 152.00000 34 68 116
948.00000 248.00000 156.00000 33 68 118
948.00000 252.00000 152.00000 34 68 116
948.00000 252.00000 156.00000 34 68 116
952.00000 224.00000 160.00000 29 68 122
952.00000 224.00000 164.00000 28 67 121
952.00000 228.00000 160.00000 28 67 121
956.00000 224.00000 164.00000 27 67 118
956.00000 228.00000 164.00000 27 66 120
956.00000 224.00000 168.00000 29 66 118
956.00000 228.00000 168.00000 28 65 117
952.00000 232.00000 160.00000 28 68 119
952.00000 236.00000 160.00000 30 67 119
952.00000 236.00000 164.00000 28 65 117
956.00000 236.00000 164.00000 28 65 117
956.00000 232.00000 168.00000 28 65 117
956.00000 232.00000 172.00000 27 64 116
956.00000 236.00000 168.00000 27 64 116
956.00000 236.00000 172.00000 26 63 115
948.00000 252.00000 160.00000 33 66 117
952.00000 240.00000 160.00000 29 66 118
952.00000 240.00000 164.00000 27 64 116
952.00000 244.00000 160.00000 32 67 117
952.00000 244.00000 164.00000 31 66 116
956.00000 240.00000 168.00000 27 64 116
956.00000 244.00000 168.00000 29 64 114
956.00000 244.00000 172.00000 28 63 113
952.00000 248.00000 160.00000 32 67 117
952.00000 248.00000 164.00000 31 66 116
952.00000 252.00000 160.00000 32 67 117
952.00000 252.00000 164.00000 31 66 116
956.00000 248.00000 168.00000 29 64 114
956.00000 248.00000 172.00000 29 64 114
956.00000 252.00000 168.00000 30 65 115
956.00000 252.00000 172.00000 30 65 115
960.00000 132.00000 172.00000 61 58 94
960.00000 140.00000 164.00000 33 37 76
960.00000 136.00000 168.00000 38 38 76
960.00000 136.00000 172.00000 41 40 76
960.00000 140.00000 168.00000 34 37 76
964.00000 136.00000 172.00000 26 23 59
960.00000 128.00000 176.00000 99 93 129
960.00000 128.00000 180.00000 105 99 135
960.00000 132.00000 176.00000 74 71 107
964.00000 132.00000 176.00000 61 60 96
964.00000 128.00000 184.00000 145 138 172
964.00000 132.00000 184.00000 117 114 149
964.00000 136.00000 176.00000 47 46 82
968.00000 132.00000 184.00000 107 106 141
968.00000 132.00000 188.00000 114 115 147
968.00000 136.00000 180.00000 63 66 101
968.00000 140.00000 176.00000 41 44 79
968.00000 140.00000 180.00000 60 63 98
968.00000 136.00000 184.00000 81 84 118
968.00000 140.00000 184.00000 75 80 114
972.00000 136.00000 188.00000 118 121 153
972.00000 140.00000 188.00000 105 110 143
960.00000 144.00000 164.00000 31 37 78
960.00000 148.00000 164.00000 32 40 80
960.00000 144.00000 168.00000 30 37 75
960.00000 148.00000 168.00000 31 39 79
964.00000 144.00000 172.00000 26 33 69
964.00000 148.00000 172.00000 28 36 74
960.00000 152.00000 164.00000 30 40 80
960.00000 152.00000 168.00000 30 40 80
960.00000 152.00000 172.00000 29 39 79
960.00000 156.00000 168.00000 28 41 80
964.00000 152.00000 172.00000 26 39 76
964.00000 156.00000 172.00000 26 40 81
964.00000 148.00000 176.00000 28 39 76
964.00000 152.00000 176.00000 27 40 79
964.00000 156.00000 176.00000 25 42 82
968.00000 148.00000 176.00000 27 41 78
968.00000 148.00000 180.00000 26 43 79
968.00000 148.00000 184.00000 33 50 86
972.00000 148.00000 188.00000 55 68 103
968.00000 152.00000 176.00000 28 42 81
968.00000 156.00000 180.00000 28 46 84
968.00000 152.00000 184.00000 30 48 86
968.00000 156.00000 184.00000 29 50 87
972.00000 152.00000 184.00000 37 55 93
972.00000 152.00000 188.00000 45 63 99
972.00000 156.00000 188.00000 35 57 94
960.00000 160.00000 164.00000 27 41 84
960.00000 164.00000 164.00000 23 39 82
960.00000 160.00000 168.00000 24 40 83
960.00000 164.00000 168.00000 22 40 84
964.00000 160.00000 172.00000 23 39 82
964.00000 164.00000 172.00000 23 41 85
960.00000 168.00000 168.00000 19 39 83
960.00000 168.00000 172.00000 17 37 82
960.00000 172.00000 168.00000 20 41 86
964.00000 168.00000 172.00000 20 40 84
964.00000 160.00000 176.00000 24 42 84
964.00000 164.00000 176.00000 23 43 85
964.00000 168.00000 176.00000 22 42 86
964.00000 172.00000 176.00000 23 44 89
964.00000 172.00000 180.00000 27 49 92
968.00000 164.00000 180.00000 28 50 91
968.00000 164.00000 184.00000 32 54 95
968.00000 164.00000 188.00000 33 57 98
968.00000 168.00000 180.00000 30 52 93
968.00000 168.00000 184.00000 33 55 96
968.00000 168.00000 188.00000 35 57 98
968.00000 172.00000 184.00000 34 56 99
968.00000 172.00000 188.00000 37 59 100
960.00000 176.00000 168.00000 22 43 88
960.00000 176.00000 172.00000 22 43 88
960.00000 180.00000 168.00000 23 47 91
960.00000 180.00000 172.00000 23 47 91
960.00000 184.00000 168.00000 26 50 96
960.00000 184.00000 172.00000 25 49 93
960.00000 188.00000 168.00000 27 53 99
964.00000 176.00000 176.00000 26 50 94
964.00000 180.00000 176.00000 29 53 97
964.00000 180.00000 180.00000 30 54 98
964.00000 184.00000 176.00000 31 55 101
964.00000 184.00000 180.00000 32 56 102
964.00000 188.00000 176.00000 29 55 101
968.00000 176.00000 180.00000 28 52 96
968.00000 180.00000 180.00000 30 54 98
968.00000 176.00000 184.00000 31 55 99
968.00000 176.00000 188.00000 35 59 102
968.00000 180.00000 184.00000 32 56 100
968.00000 180.00000 188.00000 35 59 103
968.00000 188.00000 180.00000 33 59 105
968.00000 184.00000 184.00000 34 58 102
968.00000 184.00000 188.00000 35 59 103
968.00000 188.00000 184.00000 33 61 106
968.00000 188.00000 188.00000 35 61 107
972.00000 132.00000 192.00000 121 124 156
972.00000 132.00000 196.00000 122 125 157
972.00000 128.00000 200.00000 137 134 165
972.00000 132.00000 200.00000 118 121 153
972.00000 136.00000 192.00000 115 120 151
972.00000 136.00000 196.00000 117 122 153
972.00000 140.00000 192.00000 108 113 146
972.00000 140.00000 196.00000 99 108 140
972.00000 140.00000 200.00000 70 87 118
972.00000 144.00000 192.00000 83 94 127
972.00000 144.00000 200.00000 56 79 108
972.00000 152.00000 192.00000 44 66 101
972.00000 152.00000 196.00000 45 72 106
972.00000 156.00000 192.00000 41 66 102
972.00000 156.00000 196.00000 44 73 108
976.00000 128.00000 204.00000 117 120 152
976.00000 136.00000 200.00000 83 94 126
976.00000 136.00000 204.00000 50 67 98
976.00000 140.00000 204.00000 29 52 81
976.00000 128.00000 208.00000 104 108 137
980.00000 128.00000 216.00000 109 104 133
980.00000 128.00000 220.00000 111 106 135
980.00000 132.00000 220.00000 104 101 132
980.00000 136.00000 208.00000 30 47 78
980.00000 140.00000 208.00000 23 42 72
980.00000 140.00000 212.00000 13 32 62
980.00000 136.00000 216.00000 51 62 92
980.00000 140.00000 216.00000 42 56 87
980.00000 140.00000 220.00000 61 72 104
976.00000 144.00000 200.00000 51 79 108
976.00000 144.00000 204.00000 39 68 97
976.00000 148.00000 204.00000 55 92 121
976.00000 152.00000 200.00000 49 82 112
976.00000 152.00000 204.00000 51 84 114
976.00000 156.00000 200.00000 48 79 112
976.00000 156.00000 204.00000 48 79 110
976.00000 144.00000 208.00000 34 62 91
976.00000 148.00000 208.00000 44 76 104
980.00000 144.00000 208.00000 33 61 90
980.00000 144.00000 212.00000 31 50 80
980.00000 148.00000 208.00000 44 73 104
980.00000 148.00000 212.00000 42 69 101
980.00000 144.00000 216.00000 39 56 87
980.00000 144.00000 220.00000 48 65 97
980.00000 148.00000 216.00000 42 63 94
980.00000 148.00000 220.00000 44 65 96
976.00000 152.00000 208.00000 49 80 111
976.00000 156.00000 208.00000 49 80 111
980.00000 152.00000 208.00000 46 75 106
980.00000 152.00000 212.00000 44 71 103
980.00000 156.00000 212.00000 40 67 101
980.00000 152.00000 216.00000 44 69 101
980.00000 156.00000 216.00000 40 67 99
980.00000 156.00000 220.00000 49 71 106
980.00000 128.00000 224.00000 118 113 144
984.00000 128.00000 224.00000 109 106 137
984.00000 132.00000 224.00000 103 100 133
984.00000 128.00000 232.00000 114 111 144
984.00000 128.00000 236.00000 107 108 142
984.00000 132.00000 232.00000 83 84 119
988.00000 132.00000 236.00000 75 79 116
984.00000 140.00000 224.00000 58 66 100
984.00000 140.00000 228.00000 56 63 97
984.00000 136.00000 232.00000 56 57 92
984.00000 136.00000 236.00000 59 63 100
984.00000 140.00000 232.00000 53 60 96
984.00000 140.00000 236.00000 55 62 98
988.00000 136.00000 236.00000 65 72 110
988.00000 140.00000 236.00000 57 65 103
984.00000 128.00000 240.00000 116 117 152
988.00000 128.00000 244.00000 100 104 141
988.00000 132.00000 240.00000 74 81 119
988.00000 132.00000 244.00000 85 93 131
988.00000 128.00000 252.00000 96 106 146
988.00000 132.00000 248.00000 81 94 133
988.00000 132.00000 252.00000 84 97 138
988.00000 136.00000 240.00000 60 70 110
988.00000 136.00000 244.00000 71 81 121
988.00000 140.00000 240.00000 58 66 104
988.00000 136.00000 248.00000 78 91 132
988.00000 136.00000 252.00000 79 92 133
984.00000 144.00000 224.00000 52 67 99
984.00000 148.00000 224.00000 48 67 100
984.00000 144.00000 232.00000 53 61 97
984.00000 148.00000 232.00000 56 69 106
984.00000 148.00000 236.00000 56 69 106
988.00000 144.00000 236.00000 55 66 103
988.00000 148.00000 236.00000 54 68 107
984.00000 156.00000 224.00000 54 73 106
984.00000 156.00000 228.00000 60 77 113
984.00000 152.00000 232.00000 60 77 113
984.00000 152.00000 236.00000 60 74 111
984.00000 156.00000 232.00000 62 79 115
984.00000 156.00000 236.00000 62 79 117
988.00000 144.00000 240.00000 52 69 109
988.00000 144.00000 244.00000 52 70 112
988.00000 148.00000 240.00000 51 69 109
988.00000 148.00000 244.00000 49 67 109
988.00000 148.00000 248.00000 44 64 106
988.00000 148.00000 252.00000 40 60 102
988.00000 152.00000 240.00000 51 69 109
988.00000 152.00000 244.00000 45 65 107
988.00000 156.00000 240.00000 53 71 111
988.00000 156.00000 244.00000 44 64 106
988.00000 152.00000 248.00000 42 62 104
988.00000 152.00000 252.00000 35 57 98
988.00000 156.00000 248.00000 34 56 97
988.00000 156.00000 252.00000 29 53 96
972.00000 160.00000 192.00000 39 63 102
972.00000 160.00000 196.00000 39 63 102
972.00000 164.00000 192.00000 37 61 100
972.00000 164.00000 196.00000 38 60 101
972.00000 168.00000 192.00000 37 59 100
972.00000 168.00000 196.00000 39 61 102
972.00000 172.00000 192.00000 37 59 100
972.00000 168.00000 200.00000 42 64 105
972.00000 172.00000 200.00000 44 64 106
968.00000 180.00000 192.00000 37 61 105
972.00000 180.00000 192.00000 40 61 106
972.00000 176.00000 200.00000 45 65 107
968.00000 184.00000 192.00000 37 61 105
968.00000 188.00000 192.00000 39 63 107
972.00000 184.00000 196.00000 43 65 108
972.00000 188.00000 192.00000 41 65 109
972.00000 188.00000 196.00000 44 66 109
972.00000 184.00000 200.00000 45 67 110
972.00000 188.00000 200.00000 47 69 112
976.00000 160.00000 196.00000 41 68 104
976.00000 160.00000 200.00000 42 69 105
976.00000 160.00000 204.00000 48 77 110
976.00000 164.00000 200.00000 41 65 104
976.00000 164.00000 204.00000 44 68 107
976.00000 168.00000 200.00000 43 65 106
976.00000 168.00000 204.00000 44 66 105
976.00000 172.00000 200.00000 44 64 106
976.00000 172.00000 204.00000 50 72 111
976.00000 160.00000 208.00000 51 80 113
976.00000 160.00000 212.00000 46 73 107
976.00000 164.00000 208.00000 62 87 123
980.00000 160.00000 212.00000 36 63 97
980.00000 164.00000 212.00000 59 84 120
980.00000 160.00000 216.00000 52 74 109
980.00000 160.00000 220.00000 53 74 109
980.00000 164.00000 216.00000 62 84 121
980.00000 164.00000 220.00000 59 80 117
976.00000 168.00000 208.00000 69 91 130
976.00000 168.00000 212.00000 99 121 158
976.00000 172.00000 208.00000 64 86 125
976.00000 172.00000 212.00000 72 92 132
980.00000 168.00000 212.00000 81 103 140
980.00000 168.00000 216.00000 71 93 130
980.00000 172.00000 216.00000 66 86 126
980.00000 172.00000 220.00000 61 79 119
976.00000 176.00000 204.00000 47 67 109
976.00000 180.00000 204.00000 48 68 110
976.00000 184.00000 204.00000 48 68 110
976.00000 188.00000 204.00000 49 71 114
976.00000 176.00000 208.00000 49 69 111
976.00000 176.00000 212.00000 50 70 110
976.00000 180.00000 208.00000 50 70 112
976.00000 180.00000 212.00000 51 71 111
976.00000 180.00000 216.00000 54 72 112
980.00000 176.00000 216.00000 61 79 119
980.00000 176.00000 220.00000 57 75 115
980.00000 180.00000 216.00000 55 73 115
976.00000 184.00000 208.00000 51 71 113
976.00000 184.00000 212.00000 53 73 115
976.00000 188.00000 208.00000 51 71 113
976.00000 188.00000 216.00000 54 74 116
980.00000 184.00000 216.00000 54 74 116
980.00000 184.00000 220.00000 53 73 115
980.00000 188.00000 220.00000 54 74 116
980.00000 164.00000 224.00000 63 80 118
980.00000 172.00000 224.00000 60 77 117
984.00000 160.00000 224.00000 61 78 114
984.00000 160.00000 228.00000 64 81 117
984.00000 164.00000 224.00000 62 79 115
984.00000 164.00000 228.00000 70 84 121
984.00000 160.00000 232.00000 70 84 121
984.00000 160.00000 236.00000 63 80 118
984.00000 164.00000 232.00000 77 90 127
984.00000 164.00000 236.00000 67 81 120
984.00000 168.00000 236.00000 62 76 115
984.00000 172.00000 232.00000 63 77 116
984.00000 172.00000 236.00000 55 72 110
984.00000 160.00000 240.00000 58 75 115
984.00000 164.00000 240.00000 57 74 114
988.00000 160.00000 244.00000 45 65 107
988.00000 164.00000 244.00000 38 58 100
988.00000 160.00000 248.00000 30 54 95
988.00000 160.00000 252.00000 20 47 89
988.00000 164.00000 248.00000 26 50 91
988.00000 164.00000 252.00000 23 47 90
984.00000 168.00000 240.00000 50 67 105
984.00000 172.00000 240.00000 44 62 100
984.00000 172.00000 244.00000 39 57 97
988.00000 168.00000 244.00000 39 59 99
988.00000 172.00000 244.00000 32 52 92
988.00000 168.00000 248.00000 22 46 87
988.00000 168.00000 252.00000 21 45 86
988.00000 172.00000 248.00000 20 42 83
988.00000 172.00000 252.00000 18 42 83
980.00000 176.00000 224.00000 56 74 114
980.00000 180.00000 224.00000 51 69 109
980.00000 180.00000 228.00000 49 67 107
980.00000 184.00000 224.00000 47 67 107
980.00000 184.00000 228.00000 42 62 102
980.00000 188.00000 224.00000 52 72 114
984.00000 176.00000 228.00000 57 74 114
984.00000 180.00000 228.00000 47 65 105
984.00000 176.00000 232.00000 49 66 106
984.00000 176.00000 236.00000 48 65 103
984.00000 180.00000 232.00000 41 59 99
984.00000 180.00000 236.00000 39 57 97
984.00000 188.00000 228.00000 41 61 101
984.00000 184.00000 232.00000 37 55 95
984.00000 184.00000 236.00000 27 47 87
984.00000 188.00000 232.00000 39 59 99
984.00000 188.00000 236.00000 32 52 92
984.00000 176.00000 240.00000 37 55 95
984.00000 176.00000 244.00000 30 50 90
984.00000 180.00000 240.00000 29 49 89
988.00000 176.00000 244.00000 25 47 86
988.00000 180.00000 244.00000 23 45 84
988.00000 176.00000 248.00000 19 41 82
988.00000 176.00000 252.00000 16 38 79
988.00000 180.00000 248.00000 22 44 83
988.00000 180.00000 252.00000 19 41 82
984.00000 184.00000 244.00000 28 48 88
984.00000 188.00000 240.00000 31 51 91
984.00000 188.00000 244.00000 31 53 92
988.00000 184.00000 248.00000 25 47 86
988.00000 184.00000 252.00000 26 48 87
988.00000 188.00000 248.00000 30 52 91
988.00000 188.00000 252.00000 31 53 92
992.00000 136.00000 252.00000 74 88 129
992.00000 140.00000 252.00000 66 83 123
992.00000 144.00000 252.00000 53 71 113
992.00000 148.00000 252.00000 41 61 103
992.00000 152.00000 252.00000 38 60 101
992.00000 160.00000 252.00000 25 49 92
960.00000 192.00000 168.00000 32 59 107
960.00000 192.00000 172.00000 31 61 108
960.00000 196.00000 168.00000 34 65 112
960.00000 196.00000 172.00000 33 63 110
964.00000 192.00000 172.00000 31 61 108
964.00000 196.00000 172.00000 33 64 111
960.00000 200.00000 168.00000 36 67 116
960.00000 200.00000 172.00000 35 66 115
960.00000 204.00000 168.00000 36 70 118
960.00000 204.00000 172.00000 33 67 115
964.00000 192.00000 176.00000 31 59 104
964.00000 196.00000 176.00000 33 64 111
960.00000 204.00000 176.00000 32 66 114
964.00000 200.00000 176.00000 34 65 114
964.00000 204.00000 176.00000 32 66 114
968.00000 192.00000 184.00000 34 61 109
968.00000 192.00000 188.00000 37 64 112
968.00000 196.00000 184.00000 34 64 111
968.00000 196.00000 188.00000 35 65 112
968.00000 200.00000 184.00000 35 65 112
968.00000 200.00000 188.00000 36 66 113
968.00000 204.00000 184.00000 34 65 112
968.00000 204.00000 188.00000 36 66 113
960.00000 208.00000 168.00000 34 68 116
960.00000 208.00000 172.00000 32 66 114
960.00000 212.00000 172.00000 31 66 116
960.00000 216.00000 172.00000 30 65 115
960.00000 220.00000 172.00000 29 64 114
964.00000 208.00000 176.00000 31 64 115
964.00000 212.00000 176.00000 29 64 114
964.00000 212.00000 180.00000 28 63 113
960.00000 216.00000 176.00000 29 64 114
960.00000 220.00000 176.00000 29 64 114
964.00000 216.00000 176.00000 28 63 113
964.00000 216.00000 180.00000 28 63 113
964.00000 220.00000 176.00000 28 63 113
964.00000 220.00000 180.00000 26 61 111
964.00000 216.00000 184.00000 27 62 112
964.00000 220.00000 184.00000 26 61 111
968.00000 212.00000 184.00000 27 62 112
968.00000 212.00000 188.00000 28 63 113
968.00000 216.00000 184.00000 26 61 111
968.00000 216.00000 188.00000 25 60 110
968.00000 220.00000 184.00000 25 60 110
968.00000 220.00000 188.00000 24 59 109
960.00000 224.00000 172.00000 29 64 114
960.00000 228.00000 172.00000 27 62 112
960.00000 232.00000 172.00000 25 62 114
960.00000 224.00000 176.00000 27 62 112
960.00000 228.00000 176.00000 26 61 111
964.00000 224.00000 176.00000 26 61 111
964.00000 224.00000 180.00000 25 60 110
964.00000 228.00000 176.00000 25 60 110
964.00000 228.00000 180.00000 23 58 108
964.00000 224.00000 184.00000 24 59 109
964.00000 228.00000 184.00000 23 58 108
960.00000 232.00000 176.00000 26 61 111
964.00000 232.00000 176.00000 24 59 109
964.00000 232.00000 180.00000 23 58 108
964.00000 232.00000 184.00000 22 57 107
968.00000 224.00000 184.00000 24 59 109
968.00000 224.00000 188.00000 23 58 108
968.00000 228.00000 188.00000 23 58 108
968.00000 232.00000 188.00000 20 55 105
960.00000 240.00000 172.00000 25 62 112
960.00000 244.00000 172.00000 27 62 112
960.00000 252.00000 172.00000 29 64 114
960.00000 240.00000 176.00000 26 61 111
960.00000 244.00000 176.00000 26 61 111
964.00000 240.00000 180.00000 24 59 109
964.00000 244.00000 180.00000 25 60 110
964.00000 240.00000 184.00000 24 59 109
964.00000 244.00000 184.00000 24 59 109
964.00000 244.00000 188.00000 24 59 109
960.00000 248.00000 176.00000 27 62 112
960.00000 252.00000 176.00000 28 63 113
964.00000 248.00000 180.00000 26 61 111
964.00000 248.00000 184.00000 24 59 109
964.00000 248.00000 188.00000 23 58 106
968.00000 240.00000 188.00000 22 57 107
968.00000 248.00000 188.00000 24 59 107
968.00000 192.00000 192.00000 39 65 111
968.00000 196.00000 192.00000 39 67 112
972.00000 192.00000 192.00000 40 66 112
972.00000 192.00000 196.00000 42 68 112
972.00000 196.00000 192.00000 41 67 113
972.00000 196.00000 196.00000 43 69 113
972.00000 192.00000 200.00000 48 70 113
972.00000 196.00000 200.00000 47 71 115
968.00000 200.00000 192.00000 40 68 113
972.00000 200.00000 192.00000 42 70 115
972.00000 200.00000 196.00000 45 71 115
972.00000 204.00000 192.00000 43 71 116
972.00000 200.00000 200.00000 49 73 116
972.00000 204.00000 200.00000 49 75 119
972.00000 204.00000 204.00000 50 76 120
972.00000 212.00000 192.00000 39 70 119
972.00000 208.00000 200.00000 49 77 122
972.00000 208.00000 204.00000 51 79 122
972.00000 212.00000 200.00000 49 79 124
972.00000 212.00000 204.00000 55 83 128
972.00000 216.00000 192.00000 37 71 119
972.00000 216.00000 196.00000 43 74 123
972.00000 220.00000 192.00000 32 66 114
972.00000 220.00000 196.00000 41 75 123
972.00000 216.00000 200.00000 48 79 126
972.00000 216.00000 204.00000 58 88 133
972.00000 220.00000 200.00000 52 83 130
972.00000 220.00000 204.00000 61 92 139
972.00000 212.00000 208.00000 60 88 133
972.00000 220.00000 208.00000 73 105 149
976.00000 192.00000 204.00000 51 73 116
976.00000 200.00000 204.00000 52 76 119
976.00000 204.00000 204.00000 54 80 124
976.00000 192.00000 208.00000 51 73 116
976.00000 192.00000 216.00000 55 77 118
976.00000 192.00000 220.00000 55 77 118
980.00000 196.00000 220.00000 58 80 121
976.00000 200.00000 208.00000 54 78 122
976.00000 204.00000 208.00000 54 80 124
976.00000 200.00000 216.00000 55 79 122
976.00000 200.00000 220.00000 55 79 122
976.00000 204.00000 216.00000 56 80 123
976.00000 204.00000 220.00000 54 78 121
980.00000 200.00000 220.00000 55 79 122
976.00000 208.00000 204.00000 56 84 127
976.00000 208.00000 208.00000 58 86 129
976.00000 212.00000 208.00000 66 94 139
976.00000 208.00000 216.00000 58 85 127
976.00000 208.00000 220.00000 57 81 124
976.00000 212.00000 216.00000 60 88 131
976.00000 216.00000 208.00000 64 94 139
976.00000 220.00000 208.00000 67 99 143
976.00000 216.00000 216.00000 62 90 133
976.00000 216.00000 220.00000 58 86 129
976.00000 220.00000 216.00000 58 88 131
976.00000 220.00000 220.00000 58 86 129
980.00000 192.00000 224.00000 54 76 117
980.00000 192.00000 228.00000 50 72 113
980.00000 196.00000 224.00000 56 78 119
980.00000 196.00000 232.00000 49 71 112
980.00000 204.00000 224.00000 53 77 120
980.00000 204.00000 232.00000 51 75 116
984.00000 192.00000 228.00000 45 65 107
984.00000 192.00000 232.00000 42 64 105
984.00000 192.00000 236.00000 41 63 104
984.00000 196.00000 236.00000 45 67 108
984.00000 204.00000 236.00000 47 71 112
984.00000 192.00000 240.00000 35 57 96
984.00000 192.00000 244.00000 36 58 97
984.00000 196.00000 240.00000 42 64 105
984.00000 196.00000 244.00000 39 61 100
988.00000 192.00000 248.00000 35 57 96
988.00000 192.00000 252.00000 34 56 95
988.00000 196.00000 248.00000 38 60 99
988.00000 196.00000 252.00000 38 60 99
984.00000 200.00000 244.00000 42 66 107
984.00000 204.00000 240.00000 46 70 111
984.00000 204.00000 244.00000 42 66 107
984.00000 204.00000 248.00000 42 66 107
988.00000 200.00000 248.00000 39 63 102
988.00000 200.00000 252.00000 38 62 101
988.00000 204.00000 248.00000 40 64 105
988.00000 204.00000 252.00000 40 64 105
980.00000 208.00000 224.00000 54 78 121
980.00000 212.00000 224.00000 51 78 120
980.00000 212.00000 228.00000 51 78 120
980.00000 208.00000 232.00000 51 75 116
980.00000 212.00000 232.00000 52 76 119
980.00000 220.00000 224.00000 51 79 121
980.00000 216.00000 232.00000 51 78 120
980.00000 220.00000 232.00000 51 79 122
984.00000 208.00000 236.00000 48 72 113
984.00000 212.00000 236.00000 50 74 115
984.00000 220.00000 232.00000 50 78 121
984.00000 220.00000 236.00000 51 77 121
984.00000 208.00000 240.00000 46 70 111
984.00000 208.00000 244.00000 46 70 111
984.00000 212.00000 240.00000 48 72 113
984.00000 212.00000 244.00000 47 71 114
988.00000 208.00000 248.00000 42 66 107
988.00000 208.00000 252.00000 42 66 107
988.00000 212.00000 248.00000 43 67 108
988.00000 212.00000 252.00000 43 67 108
984.00000 220.00000 240.00000 50 78 121
984.00000 220.00000 244.00000 48 76 119
988.00000 220.00000 244.00000 48 76 119
988.00000 216.00000 252.00000 44 71 113
988.00000 220.00000 248.00000 47 75 118
988.00000 220.00000 252.00000 47 75 118
968.00000 228.00000 192.00000 26 61 111
972.00000 224.00000 204.00000 59 90 137
972.00000 228.00000 200.00000 47 81 127
972.00000 228.00000 204.00000 51 82 129
968.00000 232.00000 192.00000 24 59 109
972.00000 232.00000 200.00000 43 77 123
972.00000 232.00000 204.00000 42 76 122
972.00000 236.00000 200.00000 40 74 120
972.00000 236.00000 204.00000 41 75 121
972.00000 232.00000 208.00000 44 75 122
972.00000 236.00000 208.00000 43 74 121
968.00000 240.00000 192.00000 27 62 110
968.00000 240.00000 196.00000 34 68 116
968.00000 244.00000 192.00000 27 62 110
972.00000 244.00000 196.00000 34 68 114
972.00000 240.00000 200.00000 39 73 119
972.00000 240.00000 204.00000 43 74 121
972.00000 244.00000 200.00000 37 71 117
972.00000 244.00000 204.00000 43 74 121
968.00000 248.00000 192.00000 27 62 110
968.00000 252.00000 200.00000 36 70 116
972.00000 248.00000 200.00000 37 71 117
972.00000 248.00000 204.00000 39 73 119
972.00000 252.00000 200.00000 38 72 118
972.00000 252.00000 204.00000 40 74 120
972.00000 240.00000 208.00000 44 75 122
972.00000 244.00000 208.00000 45 76 123
972.00000 248.00000 208.00000 44 75 122
972.00000 252.00000 208.00000 42 76 122
976.00000 224.00000 208.00000 64 96 140
976.00000 224.00000 216.00000 58 88 133
980.00000 224.00000 220.00000 54 82 125
980.00000 228.00000 220.00000 51 81 124
976.00000 232.00000 208.00000 44 76 120
976.00000 236.00000 208.00000 45 77 121
976.00000 236.00000 212.00000 46 78 122
976.00000 232.00000 216.00000 48 80 124
976.00000 236.00000 216.00000 47 79 123
980.00000 232.00000 220.00000 50 80 125
980.00000 236.00000 220.00000 51 83 127
976.00000 240.00000 208.00000 44 75 122
976.00000 244.00000 208.00000 45 76 123
976.00000 244.00000 212.00000 46 78 122
976.00000 244.00000 216.00000 48 80 124
980.00000 240.00000 220.00000 52 84 128
976.00000 252.00000 208.00000 45 76 123
976.00000 248.00000 216.00000 48 80 124
976.00000 248.00000 220.00000 48 80 124
976.00000 252.00000 216.00000 48 80 124
976.00000 252.00000 220.00000 48 80 124
980.00000 224.00000 224.00000 52 80 123
980.00000 228.00000 224.00000 50 80 123
980.00000 224.00000 232.00000 52 80 123
980.00000 228.00000 232.00000 50 80 123
980.00000 236.00000 224.00000 51 83 127
980.00000 236.00000 232.00000 51 83 127
984.00000 224.00000 236.00000 51 79 122
984.00000 228.00000 236.00000 50 80 125
984.00000 236.00000 236.00000 51 81 126
984.00000 224.00000 240.00000 50 78 123
984.00000 224.00000 244.00000 50 78 123
984.00000 228.00000 240.00000 50 80 125
984.00000 228.00000 244.00000 50 80 125
984.00000 228.00000 248.00000 49 79 124
988.00000 224.00000 248.00000 49 77 120
988.00000 224.00000 252.00000 48 76 119
988.00000 228.00000 248.00000 51 79 124
988.00000 228.00000 252.00000 50 78 123
984.00000 232.00000 240.00000 51 81 126
984.00000 236.00000 240.00000 51 81 128
984.00000 236.00000 244.00000 51 81 128
988.00000 236.00000 252.00000 52 82 129
980.00000 240.00000 224.00000 51 83 127
980.00000 240.00000 232.00000 51 83 127
980.00000 248.00000 224.00000 51 83 127
980.00000 252.00000 224.00000 50 82 126
980.00000 248.00000 232.00000 51 83 127
980.00000 248.00000 236.00000 51 82 129
980.00000 252.00000 232.00000 51 82 129
980.00000 252.00000 236.00000 51 82 129
984.00000 240.00000 236.00000 52 82 127
984.00000 248.00000 236.00000 51 82 129
984.00000 252.00000 236.00000 51 82 129
984.00000 240.00000 240.00000 52 82 129
984.00000 240.00000 244.00000 52 82 129
984.00000 244.00000 240.00000 52 82 129
984.00000 244.00000 244.00000 53 83 130
984.00000 244.00000 248.00000 53 83 130
988.00000 240.00000 248.00000 53 83 130
988.00000 240.00000 252.00000 53 83 130
988.00000 244.00000 252.00000 54 84 133
984.00000 248.00000 240.00000 52 83 130
984.00000 248.00000 244.00000 53 83 130
984.00000 252.00000 240.00000 52 83 130
984.00000 252.00000 244.00000 52 83 130
984.00000 248.00000 248.00000 53 83 130
984.00000 248.00000 252.00000 54 84 131
984.00000 252.00000 248.00000 53 83 130
984.00000 252.00000 252.00000 54 84 131
988.00000 248.00000 252.00000 54 84 131
988.00000 252.00000 252.00000 54 84 131
804.00000 16.00000 308.00000 71 47 73
864.00000 36.00000 268.00000 67 54 83
880.00000 44.00000 268.00000 65 55 83
888.00000 48.00000 268.00000 68 55 82
864.00000 36.00000 308.00000 120 41 67
884.00000 44.00000 288.00000 89 59 82
888.00000 44.00000 288.00000 88 58 81
888.00000 44.00000 308.00000 74 47 63
884.00000 44.00000 328.00000 93 46 61
888.00000 44.00000 328.00000 93 46 61
864.00000 36.00000 352.00000 168 127 139
876.00000 44.00000 372.00000 55 31 27
884.00000 44.00000 352.00000 95 60 64
888.00000 48.00000 352.00000 90 55 59
888.00000 52.00000 372.00000 22 3 0
772.00000 20.00000 392.00000 109 88 121
776.00000 20.00000 392.00000 109 88 121
784.00000 56.00000 476.00000 76 206 255
796.00000 60.00000 476.00000 111 185 224
784.00000 60.00000 488.00000 118 186 208
804.00000 56.00000 472.00000 127 174 201
804.00000 60.00000 476.00000 119 180 212
820.00000 56.00000 456.00000 157 129 201
824.00000 52.00000 452.00000 140 112 198
824.00000 56.00000 456.00000 151 122 201
768.00000 64.00000 500.00000 161 165 126
784.00000 68.00000 500.00000 150 171 166
828.00000 68.00000 476.00000 176 131 97
808.00000 72.00000 500.00000 184 155 166
808.00000 80.00000 504.00000 180 154 128
828.00000 76.00000 488.00000 172 136 114
816.00000 76.00000 500.00000 179 153 103
828.00000 84.00000 500.00000 166 159 0
844.00000 52.00000 428.00000 93 95 197
840.00000 52.00000 436.00000 217 213 255
844.00000 52.00000 436.00000 62 60 170
856.00000 48.00000 416.00000 56 66 134
864.00000 48.00000 392.00000 48 50 92
864.00000 48.00000 396.00000 176 178 222
868.00000 48.00000 392.00000 49 49 89
888.00000 56.00000 392.00000 41 33 47
868.00000 52.00000 416.00000 13 24 94
868.00000 64.00000 436.00000 16 47 142
892.00000 64.00000 416.00000 78 91 148
880.00000 64.00000 436.00000 63 79 129
892.00000 72.00000 436.00000 107 107 105
840.00000 72.00000 476.00000 215 195 104
848.00000 64.00000 456.00000 156 146 232
860.00000 68.00000 456.00000 157 152 169
848.00000 72.00000 472.00000 246 242 103
848.00000 76.00000 476.00000 235 224 103
852.00000 92.00000 500.00000 135 126 116
840.00000 96.00000 508.00000 145 129 121
844.00000 96.00000 508.00000 142 129 122
856.00000 100.00000 508.00000 134 124 152
856.00000 104.00000 508.00000 133 124 158
868.00000 68.00000 448.00000 93 100 147
872.00000 72.00000 456.00000 128 123 134
872.00000 88.00000 476.00000 134 144 100
876.00000 88.00000 476.00000 127 134 86
892.00000 84.00000 456.00000 174 132 0
884.00000 88.00000 472.00000 185 179 117
884.00000 92.00000 476.00000 35 32 0
888.00000 88.00000 468.00000 186 178 116
864.00000 92.00000 488.00000 122 126 107
864.00000 92.00000 492.00000 124 125 117
872.00000 88.00000 480.00000 130 140 102
892.00000 96.00000 476.00000 117 113 74
876.00000 96.00000 488.00000 108 115 104
876.00000 100.00000 492.00000 106 111 120
864.00000 96.00000 500.00000 128 124 143
864.00000 100.00000 500.00000 126 121 152
868.00000 100.00000 500.00000 121 117 162
868.00000 108.00000 508.00000 126 118 228
876.00000 104.00000 500.00000 99 99 167
876.00000 108.00000 500.00000 81 83 146
868.00000 112.00000 508.00000 91 86 183
872.00000 116.00000 508.00000 35 34 116
876.00000 112.00000 504.00000 58 59 129
876.00000 116.00000 504.00000 57 61 124
876.00000 120.00000 508.00000 59 64 125
884.00000 96.00000 484.00000 114 118 101
880.00000 100.00000 488.00000 102 109 103
888.00000 100.00000 488.00000 84 90 96
888.00000 108.00000 492.00000 45 54 104
892.00000 108.00000 488.00000 52 61 93
880.00000 108.00000 500.00000 73 78 135
884.00000 108.00000 496.00000 56 65 117
892.00000 112.00000 492.00000 46 56 103
884.00000 112.00000 500.00000 54 64 111
880.00000 116.00000 504.00000 57 63 120
880.00000 120.00000 508.00000 71 78 128
880.00000 124.00000 508.00000 86 94 138
884.00000 120.00000 504.00000 67 77 123
884.00000 124.00000 504.00000 68 78 124
888.00000 112.00000 496.00000 49 59 106
888.00000 112.00000 500.00000 52 62 109
888.00000 116.00000 500.00000 51 61 108
892.00000 116.00000 500.00000 50 59 109
888.00000 120.00000 500.00000 54 64 111
892.00000 124.00000 500.00000 46 58 107
884.00000 128.00000 508.00000 75 85 131
888.00000 128.00000 504.00000 62 71 121
892.00000 128.00000 504.00000 60 69 119
892.00000 132.00000 504.00000 64 73 123
888.00000 136.00000 508.00000 70 79 129
888.00000 140.00000 508.00000 68 80 129
