ply
format ascii 1.0
element vertex 1142
property float x
property float y
property float z
property uchar red
property uchar green
property uchar blue
element face 0
property list uint8 int32 vertex_index
end_header
456.00000 384.00000 116.00000 173 157 133
456.00000 388.00000 112.00000 173 157 133
456.00000 388.00000 116.00000 173 157 133
456.00000 388.00000 120.00000 172 156 132
460.00000 384.00000 120.00000 172 156 132
460.00000 384.00000 124.00000 172 156 132
460.00000 388.00000 120.00000 172 156 132
460.00000 388.00000 124.00000 171 155 131
456.00000 392.00000 112.00000 173 157 133
456.00000 392.00000 116.00000 172 156 132
456.00000 396.00000 112.00000 172 156 132
456.00000 396.00000 116.00000 172 156 132
456.00000 392.00000 120.00000 172 156 132
456.00000 396.00000 120.00000 172 156 132
460.00000 392.00000 120.00000 172 156 132
460.00000 392.00000 124.00000 172 156 132
460.00000 396.00000 120.00000 172 156 132
460.00000 396.00000 124.00000 172 156 132
448.00000 400.00000 96.00000 173 158 131
448.00000 404.00000 96.00000 174 159 132
448.00000 404.00000 100.00000 174 159 132
452.00000 400.00000 96.00000 172 157 130
452.00000 400.00000 100.00000 173 158 131
452.00000 404.00000 100.00000 173 158 131
452.00000 400.00000 104.00000 172 157 130
452.00000 400.00000 108.00000 172 157 130
452.00000 404.00000 104.00000 173 158 131
452.00000 404.00000 108.00000 172 157 130
448.00000 408.00000 96.00000 174 159 132
448.00000 408.00000 100.00000 175 160 133
448.00000 412.00000 96.00000 175 160 133
448.00000 412.00000 100.00000 175 160 133
452.00000 408.00000 100.00000 174 159 132
452.00000 412.00000 100.00000 174 159 132
452.00000 408.00000 104.00000 173 158 131
452.00000 408.00000 108.00000 172 157 130
452.00000 412.00000 104.00000 172 157 130
452.00000 412.00000 108.00000 172 157 130
456.00000 400.00000 108.00000 172 157 130
456.00000 404.00000 108.00000 172 157 130
456.00000 408.00000 108.00000 171 156 129
456.00000 412.00000 108.00000 170 155 128
456.00000 400.00000 112.00000 172 157 130
456.00000 400.00000 116.00000 171 156 129
456.00000 404.00000 112.00000 171 156 129
456.00000 404.00000 116.00000 171 156 129
456.00000 400.00000 120.00000 172 156 132
456.00000 404.00000 120.00000 170 155 128
460.00000 400.00000 120.00000 171 155 131
460.00000 400.00000 124.00000 172 156 132
460.00000 404.00000 120.00000 169 154 127
460.00000 404.00000 124.00000 168 153 126
456.00000 408.00000 112.00000 171 156 129
456.00000 408.00000 116.00000 170 155 128
456.00000 412.00000 112.00000 170 155 128
456.00000 412.00000 116.00000 170 155 128
456.00000 408.00000 120.00000 168 153 126
456.00000 412.00000 120.00000 168 153 126
460.00000 408.00000 120.00000 167 152 125
460.00000 408.00000 124.00000 164 149 122
460.00000 412.00000 120.00000 165 150 123
460.00000 412.00000 124.00000 163 148 121
448.00000 416.00000 88.00000 178 163 136
448.00000 416.00000 92.00000 177 162 135
448.00000 420.00000 88.00000 176 161 134
448.00000 420.00000 92.00000 177 162 135
448.00000 424.00000 92.00000 173 158 131
448.00000 428.00000 92.00000 169 154 127
448.00000 432.00000 92.00000 164 149 120
448.00000 436.00000 92.00000 158 143 114
448.00000 440.00000 92.00000 159 144 115
448.00000 444.00000 92.00000 157 142 113
448.00000 416.00000 96.00000 175 160 133
448.00000 416.00000 100.00000 174 159 132
448.00000 420.00000 96.00000 175 160 133
448.00000 420.00000 100.00000 174 159 132
452.00000 416.00000 100.00000 173 158 131
452.00000 420.00000 100.00000 172 157 130
452.00000 416.00000 104.00000 171 156 129
452.00000 416.00000 108.00000 169 154 127
452.00000 420.00000 104.00000 171 156 129
452.00000 420.00000 108.00000 170 155 128
448.00000 424.00000 96.00000 174 159 132
448.00000 424.00000 100.00000 172 157 128
448.00000 428.00000 96.00000 171 156 127
448.00000 428.00000 100.00000 170 155 126
452.00000 424.00000 100.00000 171 156 127
452.00000 428.00000 100.00000 170 155 126
452.00000 424.00000 104.00000 170 155 128
452.00000 424.00000 108.00000 169 154 127
452.00000 428.00000 104.00000 168 153 124
452.00000 428.00000 108.00000 168 153 124
456.00000 416.00000 108.00000 170 155 128
452.00000 420.00000 112.00000 169 154 127
452.00000 424.00000 112.00000 168 153 126
452.00000 428.00000 112.00000 168 153 124
456.00000 416.00000 112.00000 169 154 127
456.00000 416.00000 116.00000 168 153 126
456.00000 420.00000 112.00000 169 154 127
456.00000 420.00000 116.00000 169 154 127
456.00000 416.00000 120.00000 166 151 124
456.00000 420.00000 120.00000 167 152 125
460.00000 416.00000 120.00000 164 149 122
460.00000 416.00000 124.00000 161 146 119
460.00000 420.00000 124.00000 162 147 120
456.00000 424.00000 112.00000 168 153 126
456.00000 424.00000 116.00000 168 153 126
456.00000 428.00000 112.00000 168 153 124
456.00000 428.00000 116.00000 167 152 123
456.00000 424.00000 120.00000 166 151 124
456.00000 424.00000 124.00000 163 148 121
456.00000 428.00000 120.00000 164 149 122
456.00000 428.00000 124.00000 161 146 119
460.00000 424.00000 124.00000 162 147 120
460.00000 428.00000 124.00000 161 146 119
448.00000 432.00000 96.00000 166 151 122
448.00000 432.00000 100.00000 165 150 121
448.00000 436.00000 96.00000 163 148 119
448.00000 436.00000 100.00000 163 148 119
452.00000 432.00000 100.00000 166 151 122
448.00000 436.00000 104.00000 162 147 118
452.00000 432.00000 104.00000 166 151 122
452.00000 432.00000 108.00000 166 151 122
452.00000 436.00000 104.00000 164 149 120
452.00000 436.00000 108.00000 164 149 120
448.00000 440.00000 96.00000 160 145 116
448.00000 440.00000 100.00000 159 144 115
448.00000 444.00000 96.00000 159 144 115
448.00000 444.00000 100.00000 157 142 113
448.00000 440.00000 104.00000 161 146 117
448.00000 444.00000 104.00000 159 144 115
452.00000 440.00000 104.00000 161 146 117
452.00000 440.00000 108.00000 163 148 119
452.00000 444.00000 104.00000 160 145 116
452.00000 444.00000 108.00000 161 146 117
452.00000 432.00000 112.00000 166 151 122
452.00000 436.00000 112.00000 164 149 120
452.00000 436.00000 116.00000 163 148 119
452.00000 440.00000 112.00000 163 148 119
452.00000 440.00000 116.00000 163 148 119
452.00000 444.00000 112.00000 159 144 115
452.00000 444.00000 116.00000 160 145 116
456.00000 432.00000 112.00000 166 151 122
456.00000 432.00000 116.00000 164 149 120
456.00000 436.00000 116.00000 163 148 119
456.00000 432.00000 120.00000 162 147 118
456.00000 432.00000 124.00000 161 146 117
456.00000 436.00000 120.00000 161 146 117
456.00000 436.00000 124.00000 159 144 115
460.00000 432.00000 124.00000 161 146 117
456.00000 440.00000 116.00000 160 145 116
456.00000 444.00000 116.00000 157 142 113
456.00000 440.00000 120.00000 161 146 117
456.00000 440.00000 124.00000 160 145 116
456.00000 444.00000 120.00000 160 145 116
456.00000 444.00000 124.00000 161 146 117
448.00000 448.00000 96.00000 160 145 116
448.00000 448.00000 100.00000 156 141 112
448.00000 452.00000 96.00000 157 142 113
448.00000 452.00000 100.00000 154 139 110
448.00000 448.00000 104.00000 155 140 111
448.00000 448.00000 108.00000 153 138 109
448.00000 452.00000 104.00000 153 138 109
448.00000 452.00000 108.00000 150 135 106
452.00000 448.00000 108.00000 153 138 109
452.00000 452.00000 108.00000 151 136 107
448.00000 456.00000 100.00000 156 141 112
448.00000 460.00000 100.00000 162 147 116
448.00000 456.00000 104.00000 153 138 109
448.00000 456.00000 108.00000 152 137 106
448.00000 460.00000 104.00000 156 141 110
448.00000 460.00000 108.00000 153 138 107
452.00000 456.00000 108.00000 149 134 103
452.00000 460.00000 108.00000 149 134 103
452.00000 448.00000 112.00000 150 135 106
452.00000 448.00000 116.00000 150 135 104
452.00000 452.00000 112.00000 145 130 99
452.00000 452.00000 116.00000 148 133 102
452.00000 448.00000 120.00000 151 136 105
452.00000 452.00000 120.00000 148 133 102
452.00000 456.00000 112.00000 144 129 98
452.00000 456.00000 116.00000 137 122 91
452.00000 460.00000 112.00000 146 131 100
452.00000 460.00000 116.00000 142 127 96
452.00000 456.00000 120.00000 143 128 97
452.00000 460.00000 120.00000 145 130 99
452.00000 460.00000 124.00000 147 132 101
456.00000 448.00000 116.00000 155 140 111
456.00000 448.00000 120.00000 156 141 110
456.00000 448.00000 124.00000 158 143 112
456.00000 452.00000 120.00000 151 136 105
456.00000 452.00000 124.00000 158 143 112
456.00000 456.00000 120.00000 148 133 102
456.00000 456.00000 124.00000 151 136 105
456.00000 460.00000 124.00000 148 133 102
448.00000 464.00000 100.00000 163 148 117
448.00000 464.00000 104.00000 164 149 118
448.00000 464.00000 108.00000 159 144 112
448.00000 468.00000 104.00000 168 153 121
448.00000 468.00000 108.00000 163 148 116
448.00000 472.00000 104.00000 177 162 130
448.00000 472.00000 108.00000 168 153 121
448.00000 476.00000 108.00000 164 149 115
448.00000 464.00000 112.00000 151 136 104
448.00000 468.00000 112.00000 159 144 112
448.00000 468.00000 116.00000 154 139 105
452.00000 464.00000 112.00000 149 134 103
452.00000 464.00000 116.00000 149 134 102
452.00000 468.00000 116.00000 152 137 105
452.00000 464.00000 120.00000 150 135 103
452.00000 464.00000 124.00000 149 134 102
452.00000 468.00000 120.00000 152 137 103
452.00000 468.00000 124.00000 150 135 103
448.00000 472.00000 112.00000 160 145 111
448.00000 472.00000 116.00000 156 141 107
448.00000 476.00000 112.00000 159 144 110
448.00000 476.00000 116.00000 154 139 105
452.00000 472.00000 116.00000 153 138 104
448.00000 476.00000 120.00000 156 141 107
452.00000 472.00000 120.00000 151 136 102
452.00000 472.00000 124.00000 148 133 99
452.00000 476.00000 120.00000 154 139 105
452.00000 476.00000 124.00000 154 139 105
456.00000 464.00000 124.00000 149 134 102
448.00000 480.00000 112.00000 164 149 115
448.00000 480.00000 116.00000 169 155 118
448.00000 484.00000 112.00000 172 158 121
448.00000 484.00000 116.00000 183 169 132
448.00000 480.00000 120.00000 160 146 109
448.00000 480.00000 124.00000 164 150 113
448.00000 484.00000 120.00000 171 157 120
448.00000 484.00000 124.00000 170 156 119
452.00000 480.00000 124.00000 161 147 110
452.00000 484.00000 124.00000 165 151 114
448.00000 488.00000 116.00000 183 169 132
448.00000 488.00000 120.00000 189 175 138
448.00000 488.00000 124.00000 185 171 134
448.00000 492.00000 120.00000 190 176 137
448.00000 492.00000 124.00000 195 181 142
448.00000 496.00000 124.00000 192 178 139
384.00000 384.00000 172.00000 158 143 114
384.00000 388.00000 172.00000 153 138 109
384.00000 392.00000 168.00000 150 135 106
384.00000 392.00000 172.00000 148 133 104
384.00000 396.00000 168.00000 146 131 102
384.00000 396.00000 172.00000 145 130 101
384.00000 384.00000 176.00000 151 136 107
384.00000 388.00000 176.00000 149 134 105
388.00000 384.00000 176.00000 147 132 103
388.00000 384.00000 180.00000 142 127 98
388.00000 388.00000 176.00000 145 130 101
388.00000 388.00000 180.00000 140 125 96
384.00000 392.00000 176.00000 146 131 102
384.00000 396.00000 176.00000 144 129 100
388.00000 392.00000 176.00000 142 127 98
388.00000 392.00000 180.00000 140 125 96
388.00000 396.00000 176.00000 143 128 99
392.00000 384.00000 180.00000 140 125 96
392.00000 388.00000 180.00000 137 122 93
396.00000 384.00000 180.00000 137 122 93
396.00000 388.00000 180.00000 135 120 91
392.00000 388.00000 184.00000 138 123 94
396.00000 384.00000 184.00000 136 121 92
396.00000 384.00000 188.00000 136 121 92
396.00000 388.00000 184.00000 136 121 92
392.00000 392.00000 180.00000 139 124 95
392.00000 396.00000 176.00000 141 126 97
392.00000 396.00000 180.00000 140 125 96
392.00000 392.00000 184.00000 138 123 94
392.00000 396.00000 184.00000 139 124 95
396.00000 392.00000 184.00000 138 123 94
396.00000 396.00000 184.00000 139 124 95
384.00000 400.00000 168.00000 142 127 98
384.00000 400.00000 172.00000 141 126 97
384.00000 404.00000 168.00000 140 125 96
384.00000 404.00000 172.00000 139 124 95
388.00000 400.00000 172.00000 140 125 96
388.00000 404.00000 172.00000 139 124 97
384.00000 408.00000 168.00000 138 123 96
384.00000 412.00000 168.00000 138 123 96
388.00000 408.00000 168.00000 138 123 96
388.00000 408.00000 172.00000 137 122 95
388.00000 412.00000 168.00000 137 122 95
388.00000 412.00000 172.00000 136 121 94
388.00000 400.00000 176.00000 139 124 95
388.00000 404.00000 176.00000 138 123 96
388.00000 408.00000 176.00000 137 122 95
388.00000 412.00000 176.00000 135 120 93
392.00000 400.00000 176.00000 140 125 96
392.00000 400.00000 180.00000 139 124 95
392.00000 404.00000 176.00000 136 121 94
392.00000 404.00000 180.00000 137 122 95
396.00000 404.00000 180.00000 137 122 95
396.00000 400.00000 184.00000 138 123 94
396.00000 404.00000 184.00000 137 122 95
392.00000 408.00000 176.00000 135 120 93
392.00000 408.00000 180.00000 135 120 93
392.00000 412.00000 176.00000 133 118 91
392.00000 412.00000 180.00000 134 119 92
396.00000 408.00000 180.00000 136 121 94
396.00000 412.00000 176.00000 131 116 89
396.00000 412.00000 180.00000 132 117 90
396.00000 408.00000 184.00000 136 121 94
396.00000 412.00000 184.00000 136 121 94
400.00000 384.00000 184.00000 136 121 92
400.00000 384.00000 188.00000 135 120 91
400.00000 388.00000 184.00000 137 122 93
400.00000 388.00000 188.00000 139 124 95
404.00000 384.00000 188.00000 138 123 94
404.00000 388.00000 188.00000 140 125 96
400.00000 392.00000 184.00000 140 125 96
400.00000 392.00000 188.00000 142 127 98
400.00000 396.00000 184.00000 141 126 97
400.00000 396.00000 188.00000 142 127 98
404.00000 392.00000 188.00000 142 127 98
404.00000 396.00000 188.00000 143 128 99
408.00000 384.00000 184.00000 140 125 96
408.00000 384.00000 188.00000 142 127 98
408.00000 388.00000 188.00000 142 127 98
412.00000 384.00000 184.00000 143 128 101
412.00000 384.00000 188.00000 144 129 102
412.00000 388.00000 184.00000 144 129 102
412.00000 388.00000 188.00000 146 131 104
408.00000 392.00000 188.00000 143 128 99
408.00000 396.00000 188.00000 143 128 101
412.00000 392.00000 184.00000 146 131 104
412.00000 392.00000 188.00000 144 129 102
412.00000 396.00000 184.00000 146 131 104
412.00000 396.00000 188.00000 146 131 104
400.00000 400.00000 184.00000 140 125 98
400.00000 404.00000 184.00000 139 124 97
404.00000 400.00000 188.00000 143 128 101
404.00000 404.00000 184.00000 141 126 99
404.00000 404.00000 188.00000 143 128 101
400.00000 408.00000 184.00000 139 124 97
400.00000 412.00000 184.00000 138 123 96
404.00000 408.00000 184.00000 141 126 99
404.00000 408.00000 188.00000 142 127 100
404.00000 412.00000 184.00000 140 125 98
404.00000 412.00000 188.00000 141 126 99
408.00000 400.00000 188.00000 144 129 102
408.00000 404.00000 188.00000 144 129 102
412.00000 400.00000 188.00000 145 130 103
412.00000 404.00000 188.00000 146 131 104
408.00000 408.00000 188.00000 145 130 103
408.00000 412.00000 188.00000 144 129 102
412.00000 408.00000 188.00000 146 131 104
412.00000 412.00000 188.00000 147 132 105
384.00000 416.00000 168.00000 138 123 96
384.00000 420.00000 168.00000 138 123 96
388.00000 416.00000 168.00000 137 122 95
388.00000 416.00000 172.00000 136 121 94
388.00000 420.00000 168.00000 138 123 96
388.00000 420.00000 172.00000 137 122 95
384.00000 424.00000 168.00000 139 124 97
384.00000 428.00000 168.00000 140 125 98
388.00000 424.00000 168.00000 138 123 96
388.00000 424.00000 172.00000 138 123 96
388.00000 428.00000 168.00000 139 124 97
388.00000 428.00000 172.00000 139 124 97
392.00000 428.00000 172.00000 139 124 97
388.00000 416.00000 176.00000 135 120 93
388.00000 420.00000 176.00000 136 121 94
392.00000 416.00000 176.00000 134 119 92
392.00000 420.00000 176.00000 134 119 92
396.00000 416.00000 176.00000 132 117 90
396.00000 416.00000 180.00000 131 116 89
396.00000 420.00000 176.00000 131 116 89
396.00000 420.00000 180.00000 131 116 89
396.00000 416.00000 184.00000 133 118 91
392.00000 424.00000 176.00000 135 120 93
392.00000 428.00000 176.00000 136 121 94
396.00000 424.00000 176.00000 132 117 90
396.00000 424.00000 180.00000 130 115 88
396.00000 428.00000 176.00000 132 117 90
396.00000 428.00000 180.00000 130 115 88
384.00000 436.00000 164.00000 142 127 100
384.00000 432.00000 168.00000 140 125 98
384.00000 436.00000 168.00000 141 126 99
388.00000 432.00000 168.00000 141 126 99
388.00000 432.00000 172.00000 141 126 99
388.00000 436.00000 168.00000 142 127 100
388.00000 436.00000 172.00000 142 127 100
384.00000 440.00000 164.00000 142 127 100
384.00000 440.00000 168.00000 143 128 101
384.00000 444.00000 168.00000 143 128 101
388.00000 440.00000 168.00000 143 128 101
388.00000 440.00000 172.00000 143 128 101
388.00000 444.00000 168.00000 143 128 101
388.00000 444.00000 172.00000 143 128 101
392.00000 432.00000 172.00000 138 123 96
392.00000 436.00000 172.00000 139 124 97
392.00000 440.00000 172.00000 141 126 99
392.00000 444.00000 172.00000 142 127 100
392.00000 432.00000 176.00000 134 119 92
392.00000 436.00000 176.00000 134 120 93
396.00000 432.00000 176.00000 130 116 89
396.00000 432.00000 180.00000 126 112 85
396.00000 436.00000 176.00000 131 117 90
396.00000 436.00000 180.00000 130 116 89
392.00000 440.00000 176.00000 136 122 95
392.00000 444.00000 176.00000 138 124 97
396.00000 440.00000 176.00000 134 120 93
396.00000 440.00000 180.00000 133 119 92
396.00000 444.00000 176.00000 138 124 97
396.00000 444.00000 180.00000 136 122 95
396.00000 444.00000 184.00000 136 122 95
400.00000 416.00000 184.00000 135 120 93
400.00000 420.00000 184.00000 132 117 90
404.00000 416.00000 184.00000 136 121 94
404.00000 416.00000 188.00000 141 126 99
404.00000 420.00000 184.00000 133 118 91
400.00000 424.00000 184.00000 129 114 87
400.00000 428.00000 184.00000 123 109 82
404.00000 424.00000 184.00000 131 116 89
404.00000 428.00000 184.00000 123 109 82
408.00000 416.00000 188.00000 145 130 103
408.00000 420.00000 188.00000 144 129 102
412.00000 416.00000 188.00000 146 131 104
412.00000 420.00000 188.00000 147 132 105
408.00000 424.00000 188.00000 141 126 99
408.00000 428.00000 188.00000 135 121 94
412.00000 424.00000 188.00000 141 126 99
412.00000 428.00000 188.00000 136 122 95
400.00000 432.00000 184.00000 121 107 80
400.00000 436.00000 184.00000 124 110 83
404.00000 432.00000 184.00000 116 102 75
404.00000 436.00000 184.00000 124 110 83
400.00000 440.00000 184.00000 129 115 88
400.00000 444.00000 184.00000 137 123 96
404.00000 440.00000 184.00000 131 117 90
404.00000 444.00000 184.00000 136 122 95
404.00000 444.00000 188.00000 139 125 98
408.00000 432.00000 188.00000 130 116 89
408.00000 436.00000 188.00000 136 122 95
412.00000 432.00000 188.00000 134 120 93
412.00000 436.00000 188.00000 137 123 96
408.00000 440.00000 188.00000 139 125 98
408.00000 444.00000 188.00000 143 129 102
412.00000 440.00000 188.00000 142 128 101
412.00000 444.00000 188.00000 149 135 108
416.00000 384.00000 188.00000 148 133 106
416.00000 388.00000 184.00000 147 132 105
416.00000 388.00000 188.00000 150 135 108
416.00000 392.00000 184.00000 147 132 105
416.00000 392.00000 188.00000 148 133 106
416.00000 396.00000 184.00000 147 132 105
416.00000 396.00000 188.00000 147 132 105
420.00000 392.00000 188.00000 149 134 107
420.00000 396.00000 188.00000 148 133 106
416.00000 400.00000 184.00000 147 132 105
416.00000 400.00000 188.00000 147 132 105
416.00000 404.00000 184.00000 146 131 104
416.00000 404.00000 188.00000 147 132 105
420.00000 400.00000 188.00000 148 133 106
420.00000 404.00000 188.00000 147 132 105
416.00000 408.00000 184.00000 147 132 105
416.00000 408.00000 188.00000 147 132 105
416.00000 412.00000 184.00000 147 132 105
416.00000 412.00000 188.00000 147 132 105
420.00000 408.00000 188.00000 147 132 105
420.00000 412.00000 188.00000 147 132 105
440.00000 384.00000 188.00000 150 134 110
444.00000 384.00000 188.00000 151 135 111
444.00000 388.00000 188.00000 152 136 112
444.00000 392.00000 188.00000 149 133 109
444.00000 396.00000 188.00000 146 130 106
444.00000 400.00000 188.00000 154 138 114
444.00000 404.00000 188.00000 161 145 121
444.00000 408.00000 188.00000 169 153 129
444.00000 412.00000 188.00000 178 162 138
416.00000 416.00000 188.00000 147 132 105
416.00000 420.00000 188.00000 147 132 105
420.00000 416.00000 188.00000 147 132 105
420.00000 420.00000 188.00000 147 132 105
416.00000 424.00000 184.00000 146 131 104
416.00000 424.00000 188.00000 145 130 103
416.00000 428.00000 188.00000 139 125 98
420.00000 424.00000 188.00000 145 130 103
420.00000 428.00000 188.00000 143 128 101
424.00000 424.00000 188.00000 146 131 104
424.00000 428.00000 188.00000 144 129 102
416.00000 432.00000 188.00000 140 126 99
416.00000 436.00000 188.00000 142 128 101
420.00000 432.00000 188.00000 142 128 101
420.00000 436.00000 188.00000 143 129 102
416.00000 440.00000 188.00000 142 128 101
416.00000 444.00000 188.00000 146 132 105
420.00000 440.00000 188.00000 144 130 103
420.00000 444.00000 188.00000 147 133 106
424.00000 432.00000 188.00000 144 130 103
444.00000 416.00000 188.00000 175 159 135
444.00000 420.00000 188.00000 177 162 135
444.00000 424.00000 188.00000 177 162 135
444.00000 428.00000 188.00000 181 166 139
444.00000 432.00000 188.00000 180 165 138
444.00000 436.00000 188.00000 181 166 139
440.00000 444.00000 188.00000 191 176 149
444.00000 440.00000 188.00000 183 168 141
444.00000 444.00000 188.00000 187 172 145
416.00000 384.00000 192.00000 151 136 109
416.00000 388.00000 192.00000 151 136 109
420.00000 384.00000 192.00000 152 137 110
420.00000 388.00000 192.00000 152 137 110
420.00000 392.00000 192.00000 151 136 109
420.00000 396.00000 192.00000 149 134 107
424.00000 384.00000 192.00000 153 138 111
424.00000 388.00000 192.00000 152 137 110
428.00000 384.00000 192.00000 152 137 110
428.00000 388.00000 192.00000 152 137 110
424.00000 392.00000 192.00000 152 137 110
424.00000 396.00000 192.00000 150 135 108
428.00000 392.00000 192.00000 151 136 109
428.00000 396.00000 192.00000 151 136 109
420.00000 400.00000 192.00000 148 133 106
420.00000 404.00000 192.00000 147 132 105
420.00000 408.00000 192.00000 147 132 105
424.00000 400.00000 192.00000 149 134 107
424.00000 404.00000 192.00000 149 134 107
428.00000 400.00000 192.00000 150 135 108
428.00000 404.00000 192.00000 150 135 108
424.00000 408.00000 192.00000 148 133 106
424.00000 412.00000 192.00000 148 133 106
428.00000 408.00000 192.00000 149 134 107
428.00000 412.00000 192.00000 148 133 106
432.00000 384.00000 192.00000 152 136 112
432.00000 388.00000 192.00000 151 135 111
436.00000 384.00000 192.00000 151 135 111
436.00000 388.00000 192.00000 151 135 111
432.00000 392.00000 192.00000 150 134 110
432.00000 396.00000 192.00000 152 136 112
436.00000 392.00000 192.00000 151 135 111
436.00000 396.00000 192.00000 151 135 111
440.00000 384.00000 192.00000 150 134 110
440.00000 388.00000 192.00000 149 133 109
444.00000 388.00000 192.00000 151 135 111
440.00000 392.00000 192.00000 148 132 108
440.00000 396.00000 192.00000 151 135 111
444.00000 392.00000 192.00000 149 133 109
444.00000 396.00000 192.00000 149 133 109
432.00000 400.00000 192.00000 154 138 114
432.00000 404.00000 192.00000 155 139 115
436.00000 400.00000 192.00000 154 138 114
436.00000 404.00000 192.00000 157 141 117
432.00000 408.00000 192.00000 154 139 112
432.00000 412.00000 192.00000 154 139 112
436.00000 408.00000 192.00000 157 141 117
436.00000 412.00000 192.00000 160 145 118
440.00000 400.00000 192.00000 154 138 114
440.00000 404.00000 192.00000 159 143 119
444.00000 400.00000 192.00000 154 138 114
444.00000 404.00000 192.00000 160 144 120
440.00000 408.00000 192.00000 165 149 125
440.00000 412.00000 192.00000 164 148 124
444.00000 408.00000 192.00000 167 151 127
444.00000 412.00000 192.00000 172 156 132
424.00000 416.00000 192.00000 148 133 106
424.00000 420.00000 192.00000 147 132 105
428.00000 416.00000 192.00000 151 136 109
428.00000 420.00000 192.00000 148 133 106
424.00000 424.00000 192.00000 146 131 104
424.00000 428.00000 192.00000 146 131 104
428.00000 424.00000 192.00000 153 138 111
428.00000 428.00000 192.00000 149 134 107
424.00000 432.00000 192.00000 148 133 106
424.00000 436.00000 192.00000 149 135 108
428.00000 432.00000 192.00000 148 133 106
428.00000 436.00000 192.00000 151 137 110
424.00000 440.00000 192.00000 153 139 112
424.00000 444.00000 192.00000 155 141 114
428.00000 440.00000 192.00000 157 143 116
428.00000 444.00000 192.00000 159 145 118
432.00000 416.00000 192.00000 158 143 116
432.00000 420.00000 192.00000 162 147 120
436.00000 416.00000 192.00000 164 149 122
436.00000 420.00000 192.00000 168 153 126
432.00000 424.00000 192.00000 161 146 119
432.00000 428.00000 192.00000 161 146 119
436.00000 424.00000 192.00000 165 150 123
436.00000 428.00000 192.00000 167 152 125
440.00000 416.00000 192.00000 167 152 125
440.00000 420.00000 192.00000 168 153 126
444.00000 416.00000 192.00000 172 157 130
444.00000 420.00000 192.00000 173 158 131
440.00000 424.00000 192.00000 170 155 128
440.00000 428.00000 192.00000 171 156 129
444.00000 424.00000 192.00000 175 160 133
444.00000 428.00000 192.00000 177 162 135
432.00000 432.00000 192.00000 155 140 113
432.00000 436.00000 192.00000 155 140 113
436.00000 432.00000 192.00000 168 153 126
436.00000 436.00000 192.00000 168 153 126
432.00000 440.00000 192.00000 166 152 125
432.00000 444.00000 192.00000 164 150 123
436.00000 440.00000 192.00000 178 163 136
436.00000 444.00000 192.00000 175 160 133
440.00000 432.00000 192.00000 175 160 133
440.00000 436.00000 192.00000 177 162 135
444.00000 432.00000 192.00000 178 163 136
444.00000 436.00000 192.00000 179 164 137
440.00000 440.00000 192.00000 182 167 140
440.00000 444.00000 192.00000 186 171 144
384.00000 448.00000 168.00000 143 128 101
384.00000 452.00000 168.00000 143 128 101
388.00000 448.00000 168.00000 144 129 102
388.00000 448.00000 172.00000 144 129 102
388.00000 452.00000 168.00000 143 128 101
388.00000 452.00000 172.00000 144 129 102
384.00000 456.00000 168.00000 143 128 101
384.00000 460.00000 168.00000 143 128 101
388.00000 456.00000 168.00000 143 128 101
388.00000 456.00000 172.00000 144 129 102
388.00000 460.00000 172.00000 144 129 102
388.00000 452.00000 176.00000 144 129 102
388.00000 456.00000 176.00000 144 129 102
388.00000 460.00000 176.00000 144 129 102
392.00000 448.00000 176.00000 143 128 101
392.00000 452.00000 176.00000 144 129 102
396.00000 448.00000 176.00000 143 128 101
396.00000 448.00000 180.00000 141 127 100
396.00000 452.00000 176.00000 144 129 102
396.00000 452.00000 180.00000 142 128 101
396.00000 448.00000 184.00000 142 128 101
396.00000 452.00000 184.00000 144 130 103
392.00000 456.00000 176.00000 145 130 103
392.00000 456.00000 180.00000 145 130 103
392.00000 460.00000 176.00000 145 130 103
392.00000 460.00000 180.00000 146 131 104
396.00000 456.00000 180.00000 145 131 104
396.00000 460.00000 180.00000 146 131 104
396.00000 456.00000 184.00000 145 131 104
396.00000 460.00000 184.00000 147 132 105
384.00000 464.00000 168.00000 144 129 102
384.00000 464.00000 172.00000 144 129 102
384.00000 468.00000 168.00000 144 129 102
384.00000 468.00000 172.00000 144 129 102
388.00000 464.00000 172.00000 144 129 102
384.00000 472.00000 168.00000 144 129 102
384.00000 472.00000 172.00000 145 130 103
384.00000 476.00000 172.00000 147 132 105
384.00000 468.00000 176.00000 145 130 103
388.00000 464.00000 176.00000 145 130 103
388.00000 468.00000 176.00000 145 130 103
384.00000 472.00000 176.00000 147 132 105
384.00000 476.00000 176.00000 148 133 106
388.00000 472.00000 176.00000 148 133 106
388.00000 472.00000 180.00000 147 132 105
388.00000 476.00000 176.00000 150 135 108
388.00000 476.00000 180.00000 149 134 107
392.00000 464.00000 176.00000 145 130 103
392.00000 464.00000 180.00000 146 131 104
392.00000 468.00000 176.00000 146 131 104
392.00000 468.00000 180.00000 146 131 104
396.00000 464.00000 180.00000 147 132 105
392.00000 468.00000 184.00000 146 131 104
396.00000 464.00000 184.00000 147 132 105
396.00000 468.00000 184.00000 148 133 106
392.00000 472.00000 180.00000 148 133 106
392.00000 476.00000 180.00000 150 135 108
392.00000 472.00000 184.00000 146 131 104
392.00000 476.00000 184.00000 149 134 107
396.00000 472.00000 184.00000 150 135 108
396.00000 476.00000 184.00000 152 137 110
400.00000 448.00000 184.00000 142 128 101
400.00000 452.00000 184.00000 145 131 104
404.00000 448.00000 184.00000 145 131 104
404.00000 448.00000 188.00000 144 130 103
404.00000 452.00000 184.00000 148 134 107
404.00000 452.00000 188.00000 147 133 106
400.00000 456.00000 184.00000 146 132 105
400.00000 460.00000 184.00000 147 133 106
404.00000 456.00000 184.00000 147 133 106
404.00000 456.00000 188.00000 147 133 106
404.00000 460.00000 184.00000 147 133 106
404.00000 460.00000 188.00000 148 134 107
408.00000 448.00000 188.00000 148 134 107
408.00000 452.00000 188.00000 147 133 106
412.00000 448.00000 188.00000 147 133 106
412.00000 452.00000 188.00000 146 132 105
408.00000 456.00000 188.00000 148 134 107
408.00000 460.00000 188.00000 148 134 107
412.00000 456.00000 188.00000 145 131 104
412.00000 460.00000 188.00000 147 133 106
400.00000 464.00000 184.00000 148 133 106
400.00000 464.00000 188.00000 150 135 108
400.00000 468.00000 184.00000 150 135 108
400.00000 468.00000 188.00000 150 135 108
404.00000 464.00000 188.00000 150 136 109
404.00000 468.00000 188.00000 151 136 109
400.00000 472.00000 184.00000 151 136 109
400.00000 472.00000 188.00000 152 137 110
400.00000 476.00000 184.00000 153 138 111
400.00000 476.00000 188.00000 155 140 113
404.00000 472.00000 188.00000 153 138 111
404.00000 476.00000 188.00000 154 139 112
408.00000 464.00000 188.00000 150 136 109
408.00000 468.00000 188.00000 153 139 112
412.00000 464.00000 188.00000 148 134 107
412.00000 468.00000 188.00000 151 137 110
408.00000 472.00000 188.00000 153 139 112
408.00000 476.00000 188.00000 155 140 113
412.00000 472.00000 188.00000 151 137 110
412.00000 476.00000 188.00000 154 139 112
384.00000 480.00000 172.00000 151 136 109
384.00000 480.00000 176.00000 155 140 113
384.00000 484.00000 176.00000 157 142 115
384.00000 484.00000 180.00000 160 145 118
388.00000 480.00000 176.00000 153 138 111
388.00000 480.00000 180.00000 155 140 113
388.00000 484.00000 180.00000 152 137 110
388.00000 480.00000 184.00000 151 136 109
388.00000 484.00000 184.00000 142 127 100
384.00000 488.00000 176.00000 155 140 113
384.00000 488.00000 180.00000 155 140 113
384.00000 492.00000 180.00000 160 145 118
384.00000 488.00000 184.00000 150 135 108
384.00000 492.00000 184.00000 151 136 109
388.00000 488.00000 184.00000 135 120 93
388.00000 492.00000 184.00000 143 128 101
392.00000 480.00000 184.00000 155 140 113
392.00000 484.00000 184.00000 136 121 94
396.00000 480.00000 184.00000 151 136 109
396.00000 480.00000 188.00000 157 142 115
396.00000 484.00000 184.00000 142 127 100
396.00000 484.00000 188.00000 147 132 105
392.00000 488.00000 184.00000 111 96 69
392.00000 488.00000 188.00000 132 117 90
392.00000 492.00000 184.00000 145 130 103
392.00000 492.00000 188.00000 143 128 101
396.00000 488.00000 184.00000 132 117 90
396.00000 488.00000 188.00000 141 126 99
396.00000 492.00000 188.00000 148 133 106
384.00000 496.00000 184.00000 159 144 117
384.00000 500.00000 184.00000 159 144 117
388.00000 496.00000 184.00000 158 143 116
388.00000 496.00000 188.00000 158 143 116
388.00000 500.00000 184.00000 158 143 116
388.00000 500.00000 188.00000 158 143 116
384.00000 504.00000 184.00000 159 144 117
384.00000 504.00000 188.00000 159 144 117
384.00000 508.00000 184.00000 159 144 117
384.00000 508.00000 188.00000 159 144 117
388.00000 504.00000 184.00000 159 144 117
388.00000 504.00000 188.00000 159 144 117
388.00000 508.00000 188.00000 159 144 117
392.00000 496.00000 184.00000 149 134 107
392.00000 496.00000 188.00000 156 141 114
392.00000 500.00000 188.00000 159 144 117
396.00000 496.00000 188.00000 159 144 117
396.00000 500.00000 188.00000 159 144 117
392.00000 504.00000 188.00000 159 144 117
392.00000 508.00000 188.00000 159 144 117
396.00000 504.00000 188.00000 159 144 117
396.00000 508.00000 188.00000 159 144 117
400.00000 480.00000 188.00000 159 144 117
400.00000 484.00000 188.00000 162 147 120
404.00000 480.00000 188.00000 159 144 117
404.00000 484.00000 188.00000 161 146 119
400.00000 488.00000 188.00000 161 146 119
400.00000 492.00000 188.00000 160 145 118
404.00000 488.00000 188.00000 161 146 119
404.00000 492.00000 188.00000 161 146 119
408.00000 480.00000 188.00000 159 144 117
408.00000 484.00000 188.00000 161 146 119
412.00000 480.00000 188.00000 156 141 114
412.00000 484.00000 188.00000 159 144 117
408.00000 488.00000 188.00000 161 146 119
408.00000 492.00000 188.00000 161 146 119
412.00000 488.00000 188.00000 161 146 119
400.00000 496.00000 188.00000 159 144 117
400.00000 500.00000 188.00000 159 144 117
404.00000 496.00000 188.00000 160 145 118
404.00000 500.00000 188.00000 160 145 118
400.00000 504.00000 188.00000 159 144 117
400.00000 508.00000 188.00000 159 144 117
404.00000 504.00000 188.00000 159 144 117
404.00000 508.00000 188.00000 159 144 117
408.00000 496.00000 188.00000 161 146 119
416.00000 448.00000 188.00000 145 131 104
416.00000 452.00000 188.00000 144 130 103
420.00000 448.00000 188.00000 145 131 104
420.00000 452.00000 188.00000 143 129 102
416.00000 456.00000 188.00000 142 128 101
416.00000 460.00000 188.00000 142 128 101
420.00000 456.00000 188.00000 141 127 100
420.00000 460.00000 188.00000 138 124 97
416.00000 464.00000 188.00000 147 133 106
416.00000 468.00000 188.00000 148 134 107
416.00000 472.00000 188.00000 150 136 109
416.00000 476.00000 188.00000 152 138 111
440.00000 448.00000 188.00000 186 171 144
440.00000 452.00000 188.00000 180 166 139
444.00000 448.00000 188.00000 181 167 140
444.00000 452.00000 188.00000 179 165 138
440.00000 456.00000 188.00000 175 161 134
440.00000 460.00000 188.00000 172 158 131
444.00000 456.00000 188.00000 175 161 134
444.00000 460.00000 188.00000 172 158 131
436.00000 464.00000 188.00000 164 150 123
436.00000 468.00000 188.00000 164 149 122
436.00000 472.00000 188.00000 164 149 122
436.00000 476.00000 188.00000 163 148 121
440.00000 464.00000 188.00000 165 151 124
440.00000 468.00000 188.00000 164 149 122
444.00000 464.00000 188.00000 168 154 127
444.00000 468.00000 188.00000 164 149 122
440.00000 472.00000 188.00000 163 148 121
440.00000 476.00000 188.00000 162 147 120
444.00000 472.00000 188.00000 162 147 120
444.00000 476.00000 188.00000 161 146 119
444.00000 496.00000 128.00000 201 187 148
444.00000 500.00000 128.00000 198 184 145
444.00000 500.00000 132.00000 196 182 143
440.00000 508.00000 128.00000 198 184 145
440.00000 508.00000 132.00000 197 183 144
444.00000 504.00000 128.00000 197 183 144
444.00000 504.00000 132.00000 196 182 143
444.00000 508.00000 128.00000 197 183 144
444.00000 508.00000 132.00000 195 181 142
444.00000 504.00000 136.00000 191 177 140
444.00000 504.00000 140.00000 190 176 139
444.00000 508.00000 136.00000 192 178 141
444.00000 508.00000 140.00000 188 174 137
444.00000 508.00000 144.00000 190 176 139
444.00000 508.00000 148.00000 191 176 142
428.00000 488.00000 188.00000 164 149 122
428.00000 492.00000 188.00000 164 149 122
420.00000 508.00000 188.00000 164 149 122
424.00000 500.00000 188.00000 164 149 122
428.00000 496.00000 188.00000 164 149 122
428.00000 500.00000 188.00000 164 149 122
424.00000 504.00000 188.00000 164 149 122
424.00000 508.00000 188.00000 164 149 122
428.00000 504.00000 188.00000 164 149 122
428.00000 508.00000 188.00000 164 149 122
432.00000 480.00000 188.00000 165 150 123
432.00000 484.00000 188.00000 164 149 122
436.00000 480.00000 188.00000 164 149 122
436.00000 484.00000 188.00000 164 149 122
432.00000 488.00000 188.00000 164 149 122
432.00000 492.00000 188.00000 164 149 122
436.00000 488.00000 188.00000 164 149 122
436.00000 492.00000 188.00000 164 149 122
440.00000 480.00000 188.00000 160 145 118
440.00000 484.00000 188.00000 162 147 120
444.00000 480.00000 184.00000 158 143 114
444.00000 480.00000 188.00000 159 144 115
444.00000 484.00000 184.00000 159 144 115
444.00000 484.00000 188.00000 158 143 114
440.00000 488.00000 188.00000 164 149 122
440.00000 492.00000 184.00000 163 148 119
440.00000 492.00000 188.00000 164 149 120
444.00000 488.00000 184.00000 161 146 117
444.00000 488.00000 188.00000 161 146 117
444.00000 492.00000 184.00000 162 147 118
432.00000 496.00000 188.00000 164 149 122
432.00000 500.00000 188.00000 164 149 122
436.00000 496.00000 188.00000 164 149 122
436.00000 500.00000 188.00000 165 150 123
432.00000 504.00000 188.00000 164 149 122
432.00000 508.00000 188.00000 164 149 122
436.00000 504.00000 184.00000 166 151 122
436.00000 504.00000 188.00000 165 150 121
436.00000 508.00000 184.00000 166 151 122
436.00000 508.00000 188.00000 165 150 121
444.00000 500.00000 180.00000 165 150 121
440.00000 496.00000 184.00000 164 149 120
440.00000 496.00000 188.00000 164 149 120
440.00000 500.00000 184.00000 166 151 122
440.00000 500.00000 188.00000 165 150 121
444.00000 496.00000 184.00000 162 147 118
444.00000 500.00000 184.00000 164 149 120
440.00000 508.00000 180.00000 170 155 126
444.00000 504.00000 180.00000 167 152 123
444.00000 508.00000 176.00000 172 157 126
444.00000 508.00000 180.00000 170 155 126
440.00000 504.00000 184.00000 166 151 122
440.00000 508.00000 184.00000 168 153 124
444.00000 504.00000 184.00000 166 151 122
412.00000 480.00000 192.00000 158 143 116
412.00000 484.00000 192.00000 160 145 118
408.00000 492.00000 192.00000 162 147 120
412.00000 488.00000 192.00000 162 147 120
412.00000 492.00000 192.00000 162 147 120
404.00000 500.00000 192.00000 159 144 117
400.00000 508.00000 192.00000 159 144 117
404.00000 504.00000 192.00000 160 145 118
404.00000 508.00000 192.00000 160 145 118
408.00000 496.00000 192.00000 161 146 119
408.00000 500.00000 192.00000 161 146 119
412.00000 496.00000 192.00000 162 147 120
412.00000 500.00000 192.00000 162 147 120
408.00000 504.00000 192.00000 161 146 119
408.00000 508.00000 192.00000 161 146 119
412.00000 504.00000 192.00000 162 147 120
412.00000 508.00000 192.00000 162 147 120
420.00000 448.00000 192.00000 148 134 107
420.00000 452.00000 192.00000 148 134 107
420.00000 456.00000 192.00000 143 129 102
420.00000 460.00000 192.00000 143 129 102
424.00000 448.00000 192.00000 154 140 113
424.00000 452.00000 192.00000 153 139 112
428.00000 448.00000 192.00000 161 147 120
428.00000 452.00000 192.00000 156 142 115
424.00000 456.00000 192.00000 148 134 107
424.00000 460.00000 192.00000 148 134 107
428.00000 456.00000 192.00000 155 141 114
428.00000 460.00000 192.00000 152 138 111
416.00000 464.00000 192.00000 145 131 104
416.00000 468.00000 192.00000 149 135 108
420.00000 464.00000 192.00000 148 134 107
420.00000 468.00000 192.00000 151 137 110
416.00000 472.00000 192.00000 150 136 109
416.00000 476.00000 192.00000 154 140 113
420.00000 472.00000 192.00000 153 139 112
420.00000 476.00000 192.00000 154 140 113
424.00000 464.00000 192.00000 150 136 109
424.00000 468.00000 192.00000 152 138 111
428.00000 464.00000 192.00000 152 138 111
428.00000 468.00000 192.00000 155 141 114
424.00000 472.00000 192.00000 154 140 113
424.00000 476.00000 192.00000 156 142 115
428.00000 472.00000 192.00000 157 143 116
428.00000 476.00000 192.00000 160 145 118
432.00000 448.00000 192.00000 167 153 126
432.00000 452.00000 192.00000 164 150 123
436.00000 448.00000 192.00000 177 163 136
436.00000 452.00000 192.00000 172 158 131
432.00000 456.00000 192.00000 167 153 126
432.00000 460.00000 192.00000 161 147 120
436.00000 456.00000 192.00000 176 162 135
436.00000 460.00000 192.00000 167 153 126
440.00000 448.00000 192.00000 180 166 139
440.00000 452.00000 192.00000 179 165 138
440.00000 456.00000 192.00000 177 163 136
432.00000 464.00000 192.00000 157 143 116
432.00000 468.00000 192.00000 158 144 117
436.00000 464.00000 192.00000 162 148 121
436.00000 468.00000 192.00000 161 147 120
432.00000 472.00000 192.00000 161 146 119
432.00000 476.00000 192.00000 162 147 120
436.00000 472.00000 192.00000 163 148 121
416.00000 480.00000 192.00000 158 143 116
416.00000 484.00000 192.00000 161 146 119
420.00000 480.00000 192.00000 160 145 118
420.00000 484.00000 192.00000 162 147 120
416.00000 488.00000 192.00000 163 148 121
416.00000 492.00000 192.00000 163 148 121
420.00000 488.00000 192.00000 163 148 121
420.00000 492.00000 192.00000 164 149 122
424.00000 480.00000 192.00000 161 146 119
424.00000 484.00000 192.00000 162 147 120
428.00000 480.00000 192.00000 161 146 119
428.00000 484.00000 192.00000 164 149 122
424.00000 488.00000 192.00000 163 148 121
424.00000 492.00000 192.00000 164 149 122
428.00000 488.00000 192.00000 164 149 122
428.00000 492.00000 192.00000 164 149 122
416.00000 496.00000 192.00000 163 148 121
416.00000 500.00000 192.00000 163 148 121
420.00000 496.00000 192.00000 164 149 122
420.00000 500.00000 192.00000 163 148 121
416.00000 504.00000 192.00000 163 148 121
416.00000 508.00000 192.00000 163 148 121
420.00000 504.00000 192.00000 163 148 121
420.00000 508.00000 192.00000 163 148 121
424.00000 496.00000 192.00000 164 149 122
424.00000 500.00000 192.00000 164 149 122
428.00000 496.00000 192.00000 164 149 122
424.00000 504.00000 192.00000 164 149 122
432.00000 480.00000 192.00000 163 148 121
432.00000 484.00000 192.00000 164 149 122
460.00000 384.00000 128.00000 171 155 131
460.00000 384.00000 132.00000 169 153 129
460.00000 388.00000 128.00000 171 155 131
460.00000 388.00000 132.00000 170 154 130
460.00000 384.00000 136.00000 166 150 126
460.00000 392.00000 128.00000 172 156 132
460.00000 392.00000 132.00000 171 155 131
460.00000 396.00000 128.00000 172 156 132
460.00000 396.00000 132.00000 172 156 132
460.00000 396.00000 136.00000 171 155 131
460.00000 384.00000 156.00000 159 143 119
460.00000 400.00000 128.00000 172 156 132
460.00000 400.00000 132.00000 170 154 130
460.00000 404.00000 128.00000 166 150 126
460.00000 404.00000 132.00000 165 149 125
460.00000 400.00000 136.00000 173 157 133
460.00000 404.00000 136.00000 164 148 124
460.00000 408.00000 128.00000 161 146 119
460.00000 408.00000 132.00000 160 144 120
460.00000 412.00000 128.00000 157 142 115
460.00000 412.00000 132.00000 158 143 116
460.00000 408.00000 136.00000 161 145 121
460.00000 412.00000 136.00000 157 141 117
464.00000 384.00000 136.00000 165 149 125
464.00000 384.00000 140.00000 163 147 123
464.00000 388.00000 136.00000 166 150 126
464.00000 388.00000 140.00000 164 148 124
464.00000 392.00000 136.00000 166 150 126
464.00000 392.00000 140.00000 164 148 124
464.00000 396.00000 136.00000 169 153 129
464.00000 396.00000 140.00000 165 149 125
464.00000 384.00000 144.00000 159 143 119
464.00000 384.00000 148.00000 155 139 115
464.00000 388.00000 144.00000 158 142 118
464.00000 388.00000 148.00000 156 140 116
464.00000 384.00000 152.00000 155 139 115
464.00000 384.00000 156.00000 158 142 118
464.00000 388.00000 152.00000 154 138 114
464.00000 388.00000 156.00000 154 138 114
464.00000 392.00000 144.00000 159 143 119
464.00000 392.00000 148.00000 156 140 116
464.00000 396.00000 144.00000 163 147 123
464.00000 396.00000 148.00000 159 143 119
464.00000 392.00000 152.00000 154 138 114
464.00000 392.00000 156.00000 151 135 111
464.00000 396.00000 152.00000 158 142 118
464.00000 396.00000 156.00000 158 142 118
464.00000 400.00000 136.00000 168 152 128
464.00000 400.00000 140.00000 170 154 130
464.00000 404.00000 136.00000 166 150 126
464.00000 404.00000 140.00000 169 153 129
464.00000 408.00000 136.00000 162 146 122
464.00000 408.00000 140.00000 167 151 127
464.00000 412.00000 136.00000 153 137 113
464.00000 412.00000 140.00000 163 147 123
464.00000 400.00000 144.00000 167 151 127
464.00000 400.00000 148.00000 168 152 128
464.00000 404.00000 144.00000 170 154 130
464.00000 404.00000 148.00000 170 154 130
464.00000 400.00000 152.00000 169 153 129
464.00000 400.00000 156.00000 165 149 125
464.00000 404.00000 152.00000 172 156 132
464.00000 404.00000 156.00000 171 155 131
464.00000 408.00000 144.00000 171 155 131
464.00000 408.00000 148.00000 175 159 135
464.00000 412.00000 144.00000 170 154 130
464.00000 412.00000 148.00000 172 156 132
464.00000 408.00000 152.00000 174 158 134
464.00000 408.00000 156.00000 176 160 136
464.00000 412.00000 152.00000 173 157 133
464.00000 412.00000 156.00000 177 161 137
460.00000 384.00000 160.00000 159 143 119
460.00000 384.00000 168.00000 166 150 126
460.00000 384.00000 172.00000 166 150 126
460.00000 388.00000 172.00000 166 150 126
448.00000 384.00000 188.00000 157 141 117
448.00000 388.00000 188.00000 157 141 117
452.00000 384.00000 184.00000 161 145 121
452.00000 384.00000 188.00000 160 144 120
452.00000 388.00000 184.00000 162 146 122
452.00000 388.00000 188.00000 160 144 120
448.00000 392.00000 188.00000 153 137 113
448.00000 396.00000 188.00000 156 140 116
452.00000 392.00000 188.00000 157 141 117
452.00000 396.00000 188.00000 158 142 118
460.00000 384.00000 176.00000 166 150 126
460.00000 384.00000 180.00000 166 150 126
460.00000 388.00000 176.00000 166 150 126
460.00000 388.00000 180.00000 167 151 127
456.00000 384.00000 184.00000 164 148 124
456.00000 388.00000 184.00000 164 148 124
460.00000 384.00000 184.00000 166 150 126
460.00000 388.00000 184.00000 166 150 126
460.00000 392.00000 180.00000 169 153 129
460.00000 396.00000 180.00000 173 157 133
456.00000 392.00000 184.00000 165 149 125
456.00000 396.00000 184.00000 165 149 125
456.00000 396.00000 188.00000 162 146 122
460.00000 392.00000 184.00000 167 151 127
460.00000 396.00000 184.00000 170 154 130
448.00000 400.00000 188.00000 156 140 116
448.00000 404.00000 188.00000 162 146 122
452.00000 400.00000 188.00000 161 145 121
452.00000 404.00000 188.00000 165 149 125
448.00000 408.00000 188.00000 165 149 125
448.00000 412.00000 188.00000 169 153 129
452.00000 408.00000 188.00000 166 150 126
452.00000 412.00000 188.00000 169 153 129
460.00000 400.00000 180.00000 172 156 132
460.00000 404.00000 180.00000 171 155 131
456.00000 400.00000 184.00000 167 151 127
456.00000 400.00000 188.00000 163 147 123
456.00000 404.00000 184.00000 168 152 128
456.00000 404.00000 188.00000 165 149 125
460.00000 400.00000 184.00000 171 155 131
460.00000 404.00000 184.00000 170 154 130
456.00000 408.00000 184.00000 168 152 128
456.00000 408.00000 188.00000 167 151 127
456.00000 412.00000 184.00000 168 152 128
456.00000 412.00000 188.00000 168 152 128
460.00000 408.00000 184.00000 170 154 130
460.00000 412.00000 184.00000 166 150 126
464.00000 384.00000 160.00000 159 143 119
464.00000 384.00000 164.00000 162 146 122
464.00000 388.00000 160.00000 159 143 119
464.00000 388.00000 164.00000 163 147 123
464.00000 384.00000 168.00000 165 149 125
464.00000 388.00000 168.00000 165 149 125
464.00000 388.00000 172.00000 166 150 126
464.00000 392.00000 160.00000 158 142 118
464.00000 392.00000 164.00000 164 148 124
464.00000 396.00000 160.00000 163 147 123
464.00000 396.00000 164.00000 168 152 128
464.00000 392.00000 168.00000 166 150 126
464.00000 392.00000 172.00000 167 151 127
464.00000 396.00000 168.00000 169 153 129
464.00000 396.00000 172.00000 169 153 129
464.00000 388.00000 176.00000 167 151 127
464.00000 392.00000 176.00000 169 153 129
464.00000 392.00000 180.00000 170 154 130
464.00000 396.00000 176.00000 166 150 126
464.00000 396.00000 180.00000 169 153 129
464.00000 400.00000 160.00000 170 154 130
464.00000 400.00000 164.00000 173 157 133
464.00000 404.00000 160.00000 174 158 134
464.00000 404.00000 164.00000 169 153 129
464.00000 400.00000 168.00000 168 152 128
464.00000 400.00000 172.00000 164 148 124
464.00000 404.00000 168.00000 161 145 121
464.00000 404.00000 172.00000 148 132 108
464.00000 408.00000 160.00000 180 164 140
464.00000 408.00000 164.00000 184 168 144
464.00000 412.00000 160.00000 181 165 141
464.00000 412.00000 164.00000 177 161 137
464.00000 408.00000 168.00000 157 141 117
464.00000 408.00000 172.00000 127 111 87
464.00000 412.00000 168.00000 166 150 126
464.00000 412.00000 172.00000 149 133 109
464.00000 400.00000 176.00000 162 146 122
464.00000 400.00000 180.00000 166 150 126
464.00000 404.00000 176.00000 152 136 112
464.00000 404.00000 180.00000 165 149 125
464.00000 408.00000 176.00000 147 131 107
464.00000 408.00000 180.00000 159 143 119
464.00000 412.00000 176.00000 154 138 114
464.00000 412.00000 180.00000 159 143 119
460.00000 416.00000 128.00000 152 137 110
460.00000 416.00000 132.00000 148 133 106
460.00000 420.00000 128.00000 150 135 108
460.00000 420.00000 132.00000 148 133 106
