ply
format ascii 1.0
element vertex 1167
property float x
property float y
property float z
property uchar red
property uchar green
property uchar blue
element face 0
property list uint8 int32 vertex_index
end_header
170.00000 775.00000 125.00000 76 69 66
166.00000 779.00000 117.00000 85 78 75
166.00000 783.00000 117.00000 92 85 82
166.00000 783.00000 121.00000 101 94 91
170.00000 779.00000 117.00000 86 79 76
170.00000 779.00000 121.00000 86 79 76
170.00000 783.00000 117.00000 92 85 82
170.00000 783.00000 121.00000 98 91 88
158.00000 787.00000 121.00000 111 104 101
158.00000 791.00000 121.00000 111 104 101
162.00000 787.00000 121.00000 115 108 105
162.00000 791.00000 121.00000 120 113 110
158.00000 787.00000 125.00000 112 105 102
158.00000 791.00000 125.00000 101 94 91
162.00000 791.00000 125.00000 100 93 90
162.00000 791.00000 129.00000 78 71 68
158.00000 795.00000 125.00000 102 95 92
158.00000 795.00000 129.00000 103 96 93
162.00000 795.00000 125.00000 100 93 90
162.00000 795.00000 129.00000 94 87 84
166.00000 787.00000 121.00000 112 105 102
170.00000 787.00000 121.00000 108 101 98
166.00000 787.00000 125.00000 110 103 100
166.00000 791.00000 125.00000 104 97 94
166.00000 791.00000 129.00000 95 88 85
170.00000 787.00000 125.00000 114 107 104
170.00000 791.00000 125.00000 107 100 97
170.00000 791.00000 129.00000 104 97 94
166.00000 795.00000 129.00000 96 89 86
170.00000 795.00000 129.00000 102 95 92
158.00000 791.00000 145.00000 110 103 100
158.00000 795.00000 133.00000 105 98 95
158.00000 799.00000 133.00000 114 107 104
158.00000 799.00000 137.00000 115 108 105
162.00000 795.00000 133.00000 99 92 89
162.00000 799.00000 133.00000 109 102 99
162.00000 799.00000 137.00000 115 108 103
158.00000 795.00000 141.00000 114 107 104
158.00000 795.00000 145.00000 109 102 99
158.00000 799.00000 141.00000 116 109 106
158.00000 799.00000 145.00000 111 104 99
162.00000 795.00000 145.00000 107 100 95
162.00000 799.00000 141.00000 113 106 101
162.00000 799.00000 145.00000 107 100 95
166.00000 795.00000 133.00000 103 96 93
166.00000 799.00000 133.00000 106 99 96
166.00000 799.00000 137.00000 106 99 94
170.00000 795.00000 133.00000 106 99 94
170.00000 799.00000 133.00000 106 99 94
170.00000 799.00000 137.00000 106 99 94
166.00000 795.00000 145.00000 104 97 92
166.00000 799.00000 141.00000 106 99 94
166.00000 799.00000 145.00000 102 95 90
170.00000 799.00000 141.00000 103 96 91
170.00000 799.00000 145.00000 96 89 84
170.00000 803.00000 145.00000 96 89 84
170.00000 807.00000 145.00000 94 87 82
174.00000 771.00000 121.00000 77 70 67
174.00000 775.00000 121.00000 86 79 76
174.00000 771.00000 125.00000 86 79 76
174.00000 775.00000 125.00000 88 81 78
178.00000 771.00000 125.00000 92 85 82
178.00000 775.00000 125.00000 96 89 86
174.00000 779.00000 117.00000 91 84 81
174.00000 779.00000 121.00000 93 86 83
174.00000 783.00000 117.00000 95 88 85
174.00000 783.00000 121.00000 100 93 90
178.00000 779.00000 121.00000 101 94 91
174.00000 779.00000 125.00000 97 90 87
174.00000 783.00000 125.00000 111 104 101
178.00000 779.00000 125.00000 109 102 99
178.00000 779.00000 129.00000 108 101 98
178.00000 783.00000 125.00000 109 102 99
178.00000 783.00000 129.00000 107 100 97
186.00000 771.00000 121.00000 107 100 97
182.00000 771.00000 125.00000 101 94 91
182.00000 775.00000 125.00000 108 101 98
182.00000 775.00000 129.00000 108 101 98
186.00000 771.00000 125.00000 107 100 97
186.00000 775.00000 125.00000 108 101 98
186.00000 775.00000 129.00000 107 100 97
182.00000 779.00000 129.00000 108 101 98
182.00000 783.00000 129.00000 107 100 97
186.00000 779.00000 129.00000 108 101 98
186.00000 783.00000 129.00000 107 100 97
178.00000 783.00000 133.00000 105 98 95
182.00000 783.00000 133.00000 106 99 96
186.00000 783.00000 133.00000 106 99 94
174.00000 787.00000 121.00000 111 104 101
174.00000 787.00000 125.00000 110 103 100
174.00000 787.00000 129.00000 108 101 98
174.00000 791.00000 125.00000 110 103 100
174.00000 791.00000 129.00000 104 97 92
178.00000 787.00000 125.00000 109 102 99
178.00000 787.00000 129.00000 105 98 95
178.00000 791.00000 129.00000 103 96 91
174.00000 795.00000 129.00000 101 94 89
178.00000 787.00000 133.00000 103 96 91
178.00000 791.00000 133.00000 100 93 88
178.00000 791.00000 137.00000 95 88 83
174.00000 795.00000 133.00000 99 92 87
174.00000 795.00000 137.00000 96 89 84
174.00000 799.00000 133.00000 99 92 87
174.00000 799.00000 137.00000 97 90 85
178.00000 795.00000 133.00000 96 89 84
178.00000 795.00000 137.00000 93 83 79
178.00000 799.00000 137.00000 96 86 82
174.00000 799.00000 141.00000 96 86 82
174.00000 799.00000 145.00000 96 89 84
178.00000 795.00000 141.00000 89 79 75
178.00000 799.00000 141.00000 94 84 80
182.00000 787.00000 133.00000 104 97 92
182.00000 791.00000 133.00000 102 95 90
182.00000 791.00000 137.00000 100 93 88
186.00000 787.00000 133.00000 106 99 94
186.00000 791.00000 133.00000 105 98 93
186.00000 791.00000 137.00000 106 99 94
182.00000 795.00000 137.00000 93 83 79
182.00000 799.00000 137.00000 94 84 80
186.00000 795.00000 137.00000 98 88 84
186.00000 799.00000 137.00000 92 82 78
182.00000 795.00000 141.00000 92 82 78
182.00000 799.00000 141.00000 95 85 81
186.00000 799.00000 141.00000 97 87 83
190.00000 771.00000 121.00000 107 100 97
194.00000 771.00000 121.00000 107 100 97
190.00000 771.00000 125.00000 107 100 97
190.00000 775.00000 125.00000 110 103 100
194.00000 771.00000 125.00000 108 101 98
194.00000 775.00000 125.00000 111 104 101
190.00000 779.00000 125.00000 112 105 102
190.00000 779.00000 129.00000 113 106 101
190.00000 783.00000 129.00000 114 107 102
194.00000 779.00000 125.00000 113 106 101
194.00000 779.00000 129.00000 117 110 105
194.00000 783.00000 125.00000 118 111 106
194.00000 783.00000 129.00000 121 114 109
198.00000 771.00000 121.00000 107 100 97
198.00000 775.00000 121.00000 108 101 98
202.00000 771.00000 121.00000 106 99 96
202.00000 775.00000 121.00000 109 102 99
198.00000 771.00000 125.00000 108 101 98
198.00000 775.00000 125.00000 114 107 104
202.00000 775.00000 125.00000 113 106 103
198.00000 779.00000 125.00000 120 113 108
198.00000 783.00000 125.00000 124 117 112
198.00000 783.00000 129.00000 127 120 115
202.00000 779.00000 125.00000 120 113 108
202.00000 783.00000 125.00000 126 119 114
202.00000 783.00000 129.00000 129 122 117
190.00000 787.00000 129.00000 118 111 106
194.00000 787.00000 129.00000 128 121 116
198.00000 787.00000 129.00000 138 128 124
198.00000 791.00000 129.00000 149 139 135
202.00000 787.00000 125.00000 132 122 118
202.00000 787.00000 129.00000 137 127 123
202.00000 791.00000 129.00000 138 128 124
190.00000 787.00000 133.00000 120 113 108
190.00000 791.00000 133.00000 113 103 99
190.00000 791.00000 137.00000 106 96 92
194.00000 787.00000 133.00000 129 122 117
194.00000 791.00000 133.00000 117 107 103
190.00000 795.00000 133.00000 105 95 91
190.00000 795.00000 137.00000 96 86 82
190.00000 799.00000 137.00000 121 111 107
194.00000 795.00000 133.00000 107 97 93
194.00000 795.00000 137.00000 96 86 82
194.00000 799.00000 137.00000 87 77 73
198.00000 787.00000 133.00000 132 122 118
198.00000 791.00000 133.00000 133 123 119
202.00000 791.00000 133.00000 129 119 115
198.00000 795.00000 133.00000 108 98 94
198.00000 795.00000 137.00000 99 89 85
198.00000 799.00000 137.00000 99 89 85
202.00000 795.00000 133.00000 107 97 93
202.00000 795.00000 137.00000 104 94 90
202.00000 799.00000 133.00000 89 79 75
202.00000 799.00000 137.00000 98 88 84
174.00000 803.00000 141.00000 99 89 85
174.00000 803.00000 145.00000 97 90 85
174.00000 807.00000 145.00000 102 92 88
178.00000 803.00000 141.00000 103 93 89
178.00000 803.00000 145.00000 102 92 88
178.00000 807.00000 141.00000 105 95 91
178.00000 807.00000 145.00000 105 95 91
174.00000 811.00000 145.00000 100 90 86
178.00000 811.00000 145.00000 107 97 93
186.00000 803.00000 137.00000 126 116 112
182.00000 803.00000 141.00000 105 95 91
182.00000 807.00000 141.00000 108 98 94
182.00000 807.00000 145.00000 111 101 97
186.00000 803.00000 141.00000 105 95 91
186.00000 807.00000 141.00000 111 101 97
186.00000 807.00000 145.00000 119 109 105
182.00000 811.00000 145.00000 116 106 102
186.00000 811.00000 145.00000 120 110 106
190.00000 803.00000 137.00000 180 170 166
194.00000 803.00000 137.00000 135 125 121
190.00000 803.00000 141.00000 137 127 123
190.00000 807.00000 141.00000 118 108 104
190.00000 807.00000 145.00000 123 113 109
194.00000 803.00000 141.00000 113 103 99
194.00000 807.00000 141.00000 119 109 105
194.00000 807.00000 145.00000 126 116 112
190.00000 811.00000 145.00000 125 115 111
194.00000 811.00000 145.00000 130 120 116
198.00000 803.00000 137.00000 113 103 99
202.00000 803.00000 137.00000 136 126 122
202.00000 807.00000 137.00000 154 144 140
198.00000 803.00000 141.00000 132 122 118
198.00000 807.00000 141.00000 142 132 128
198.00000 807.00000 145.00000 142 132 128
202.00000 803.00000 141.00000 140 130 126
202.00000 807.00000 141.00000 142 132 128
202.00000 807.00000 145.00000 145 135 131
198.00000 811.00000 145.00000 138 128 124
106.00000 771.00000 209.00000 120 113 110
106.00000 775.00000 209.00000 127 120 117
138.00000 775.00000 157.00000 73 66 63
138.00000 775.00000 161.00000 88 81 78
134.00000 779.00000 157.00000 100 93 90
134.00000 779.00000 161.00000 110 103 100
134.00000 783.00000 157.00000 110 103 100
134.00000 783.00000 161.00000 129 122 119
138.00000 779.00000 157.00000 92 85 82
138.00000 779.00000 161.00000 100 93 90
138.00000 783.00000 157.00000 102 95 92
126.00000 771.00000 177.00000 155 148 145
126.00000 775.00000 177.00000 144 137 134
130.00000 771.00000 173.00000 129 122 119
130.00000 771.00000 177.00000 139 132 129
130.00000 775.00000 173.00000 128 121 118
130.00000 775.00000 177.00000 135 128 125
130.00000 779.00000 173.00000 119 112 109
130.00000 779.00000 177.00000 124 117 114
130.00000 783.00000 177.00000 117 110 107
134.00000 771.00000 169.00000 108 101 98
134.00000 775.00000 169.00000 106 99 96
138.00000 771.00000 165.00000 95 88 85
138.00000 771.00000 169.00000 102 95 92
138.00000 775.00000 165.00000 102 95 92
138.00000 775.00000 169.00000 103 96 93
134.00000 771.00000 173.00000 114 107 104
134.00000 775.00000 173.00000 106 99 96
134.00000 779.00000 165.00000 117 110 107
134.00000 779.00000 169.00000 108 101 98
134.00000 783.00000 165.00000 109 102 99
134.00000 783.00000 169.00000 101 94 91
138.00000 779.00000 165.00000 107 100 97
138.00000 779.00000 169.00000 98 91 88
138.00000 783.00000 169.00000 97 90 87
134.00000 779.00000 173.00000 104 97 94
134.00000 779.00000 177.00000 114 107 104
134.00000 783.00000 173.00000 102 95 92
134.00000 783.00000 177.00000 104 97 94
138.00000 779.00000 173.00000 92 85 82
138.00000 783.00000 173.00000 96 89 86
138.00000 783.00000 177.00000 97 90 87
134.00000 787.00000 157.00000 115 108 105
134.00000 787.00000 161.00000 112 105 102
138.00000 787.00000 157.00000 109 102 99
138.00000 787.00000 161.00000 110 103 100
134.00000 787.00000 165.00000 110 103 100
134.00000 787.00000 169.00000 102 95 92
138.00000 787.00000 165.00000 105 98 95
138.00000 787.00000 169.00000 95 88 85
138.00000 791.00000 165.00000 101 94 91
138.00000 791.00000 169.00000 100 93 90
134.00000 787.00000 177.00000 102 95 92
138.00000 787.00000 173.00000 98 91 88
138.00000 787.00000 177.00000 100 93 90
138.00000 791.00000 177.00000 100 93 90
138.00000 795.00000 177.00000 100 93 90
114.00000 771.00000 193.00000 130 123 120
122.00000 771.00000 181.00000 145 138 135
122.00000 771.00000 185.00000 141 134 131
122.00000 775.00000 185.00000 139 132 129
118.00000 771.00000 189.00000 135 128 125
118.00000 771.00000 193.00000 133 126 123
118.00000 775.00000 189.00000 136 129 126
118.00000 775.00000 193.00000 135 128 125
122.00000 771.00000 189.00000 136 129 126
122.00000 775.00000 189.00000 137 130 127
122.00000 779.00000 185.00000 136 129 126
122.00000 783.00000 185.00000 133 126 123
118.00000 779.00000 189.00000 139 132 129
118.00000 779.00000 193.00000 139 132 129
118.00000 783.00000 193.00000 143 136 133
122.00000 779.00000 189.00000 138 131 128
122.00000 779.00000 193.00000 140 133 130
122.00000 783.00000 189.00000 136 129 126
122.00000 783.00000 193.00000 141 134 131
110.00000 771.00000 201.00000 130 123 120
110.00000 775.00000 201.00000 133 126 123
114.00000 771.00000 197.00000 132 125 122
114.00000 771.00000 201.00000 132 125 122
114.00000 775.00000 197.00000 136 129 126
114.00000 775.00000 201.00000 139 132 129
110.00000 771.00000 205.00000 130 123 120
110.00000 771.00000 209.00000 124 117 114
110.00000 775.00000 205.00000 134 127 124
110.00000 775.00000 209.00000 131 124 121
114.00000 779.00000 197.00000 144 137 134
114.00000 779.00000 201.00000 146 139 136
114.00000 783.00000 197.00000 150 143 140
114.00000 783.00000 201.00000 152 145 142
110.00000 779.00000 205.00000 137 130 127
110.00000 779.00000 209.00000 132 125 122
110.00000 783.00000 205.00000 144 137 134
110.00000 783.00000 209.00000 141 134 131
114.00000 783.00000 205.00000 149 142 139
118.00000 775.00000 197.00000 139 132 129
118.00000 779.00000 197.00000 147 140 137
118.00000 783.00000 197.00000 149 142 139
118.00000 787.00000 193.00000 148 141 138
118.00000 791.00000 193.00000 149 142 139
122.00000 787.00000 189.00000 140 133 130
122.00000 787.00000 193.00000 145 138 135
122.00000 791.00000 189.00000 139 132 129
122.00000 791.00000 193.00000 149 142 139
122.00000 795.00000 193.00000 148 141 138
114.00000 787.00000 197.00000 154 147 144
114.00000 787.00000 201.00000 162 155 152
114.00000 791.00000 201.00000 157 150 147
110.00000 787.00000 205.00000 146 139 136
110.00000 787.00000 209.00000 146 139 136
110.00000 791.00000 205.00000 148 141 138
110.00000 791.00000 209.00000 147 140 137
114.00000 787.00000 205.00000 154 147 144
114.00000 791.00000 205.00000 150 143 140
114.00000 791.00000 209.00000 147 140 137
114.00000 795.00000 201.00000 154 147 144
110.00000 795.00000 209.00000 146 139 136
114.00000 795.00000 205.00000 150 143 140
114.00000 795.00000 209.00000 147 140 137
114.00000 799.00000 205.00000 148 141 138
114.00000 799.00000 209.00000 147 140 137
118.00000 787.00000 197.00000 151 144 141
118.00000 791.00000 197.00000 152 145 142
118.00000 791.00000 201.00000 155 148 145
122.00000 791.00000 197.00000 150 143 140
118.00000 795.00000 197.00000 151 144 141
118.00000 795.00000 201.00000 152 145 142
118.00000 799.00000 201.00000 150 143 140
122.00000 795.00000 197.00000 150 143 140
122.00000 795.00000 201.00000 150 143 140
122.00000 799.00000 197.00000 148 141 138
122.00000 799.00000 201.00000 149 142 139
118.00000 795.00000 205.00000 149 142 139
118.00000 799.00000 205.00000 147 140 137
118.00000 799.00000 209.00000 145 138 135
122.00000 799.00000 205.00000 148 141 138
126.00000 771.00000 181.00000 147 140 137
126.00000 775.00000 181.00000 141 134 131
126.00000 775.00000 185.00000 138 131 128
126.00000 779.00000 181.00000 135 128 125
126.00000 779.00000 185.00000 134 127 124
126.00000 783.00000 181.00000 130 123 120
126.00000 783.00000 185.00000 131 124 121
130.00000 779.00000 181.00000 130 123 120
130.00000 783.00000 181.00000 121 114 111
130.00000 783.00000 185.00000 129 122 119
126.00000 783.00000 189.00000 133 126 123
134.00000 783.00000 181.00000 117 110 107
126.00000 787.00000 185.00000 128 121 118
126.00000 791.00000 185.00000 128 121 118
130.00000 787.00000 181.00000 116 109 106
130.00000 787.00000 185.00000 124 117 114
130.00000 791.00000 181.00000 115 108 105
130.00000 791.00000 185.00000 122 115 112
126.00000 787.00000 189.00000 131 124 121
126.00000 791.00000 189.00000 133 126 123
126.00000 791.00000 193.00000 141 134 131
130.00000 791.00000 189.00000 129 122 119
130.00000 795.00000 185.00000 123 116 113
126.00000 795.00000 189.00000 135 128 125
126.00000 795.00000 193.00000 143 136 133
126.00000 799.00000 193.00000 146 139 136
130.00000 795.00000 189.00000 130 123 120
130.00000 799.00000 189.00000 133 126 123
130.00000 799.00000 193.00000 139 132 129
134.00000 787.00000 181.00000 110 103 100
134.00000 791.00000 181.00000 108 101 98
134.00000 791.00000 185.00000 115 108 105
138.00000 787.00000 181.00000 105 98 95
138.00000 791.00000 181.00000 104 97 94
134.00000 795.00000 185.00000 116 109 106
134.00000 799.00000 185.00000 117 110 107
138.00000 795.00000 181.00000 99 92 89
138.00000 795.00000 185.00000 108 101 98
138.00000 799.00000 181.00000 105 98 95
138.00000 799.00000 185.00000 107 100 97
134.00000 795.00000 189.00000 125 118 115
134.00000 799.00000 189.00000 128 121 118
134.00000 799.00000 193.00000 134 127 124
138.00000 799.00000 189.00000 116 109 106
126.00000 799.00000 197.00000 148 141 138
126.00000 799.00000 201.00000 150 143 140
138.00000 807.00000 173.00000 50 43 38
138.00000 807.00000 177.00000 53 46 41
138.00000 811.00000 169.00000 58 51 46
138.00000 815.00000 169.00000 61 54 49
138.00000 811.00000 173.00000 52 45 40
138.00000 811.00000 177.00000 48 41 36
138.00000 815.00000 173.00000 62 55 50
138.00000 815.00000 177.00000 57 50 45
138.00000 819.00000 165.00000 64 57 52
138.00000 819.00000 169.00000 66 59 54
138.00000 823.00000 165.00000 68 61 56
138.00000 823.00000 169.00000 69 62 57
138.00000 819.00000 173.00000 63 56 51
138.00000 819.00000 177.00000 60 53 48
138.00000 823.00000 173.00000 70 63 58
138.00000 823.00000 177.00000 73 66 61
138.00000 827.00000 169.00000 72 65 60
138.00000 827.00000 173.00000 77 70 65
138.00000 827.00000 177.00000 79 72 67
138.00000 831.00000 177.00000 79 72 67
122.00000 803.00000 201.00000 148 141 138
118.00000 803.00000 205.00000 145 138 135
118.00000 803.00000 209.00000 144 137 134
118.00000 807.00000 209.00000 141 134 131
122.00000 803.00000 205.00000 146 139 136
122.00000 803.00000 209.00000 146 139 136
122.00000 807.00000 205.00000 147 140 137
122.00000 807.00000 209.00000 145 138 135
130.00000 803.00000 193.00000 138 131 128
138.00000 803.00000 185.00000 100 93 88
138.00000 807.00000 185.00000 81 74 69
134.00000 803.00000 189.00000 124 117 114
134.00000 803.00000 193.00000 138 131 128
134.00000 807.00000 193.00000 136 129 126
138.00000 803.00000 189.00000 113 106 103
138.00000 803.00000 193.00000 125 118 115
138.00000 807.00000 189.00000 98 91 86
138.00000 807.00000 193.00000 129 122 117
138.00000 811.00000 181.00000 49 42 37
138.00000 815.00000 181.00000 32 25 20
138.00000 815.00000 185.00000 56 49 44
138.00000 811.00000 189.00000 101 94 89
138.00000 811.00000 193.00000 119 112 107
126.00000 803.00000 197.00000 148 141 138
126.00000 803.00000 201.00000 151 144 141
126.00000 807.00000 201.00000 152 145 142
130.00000 803.00000 197.00000 149 142 139
130.00000 803.00000 201.00000 151 144 141
130.00000 807.00000 197.00000 148 141 138
130.00000 807.00000 201.00000 152 145 142
126.00000 803.00000 205.00000 150 143 140
126.00000 807.00000 205.00000 151 144 141
126.00000 807.00000 209.00000 151 144 141
130.00000 807.00000 205.00000 153 146 143
130.00000 811.00000 201.00000 157 150 147
126.00000 811.00000 205.00000 152 145 142
126.00000 811.00000 209.00000 149 142 139
130.00000 811.00000 205.00000 154 147 144
130.00000 811.00000 209.00000 144 137 134
130.00000 815.00000 209.00000 143 136 131
134.00000 803.00000 197.00000 141 134 131
134.00000 807.00000 197.00000 141 134 131
134.00000 807.00000 201.00000 146 139 136
138.00000 807.00000 197.00000 137 130 125
134.00000 811.00000 197.00000 141 134 129
134.00000 811.00000 201.00000 138 131 126
138.00000 811.00000 197.00000 136 129 124
138.00000 811.00000 201.00000 131 124 119
138.00000 815.00000 197.00000 120 113 108
138.00000 815.00000 201.00000 127 120 115
134.00000 811.00000 205.00000 142 135 130
134.00000 811.00000 209.00000 141 134 129
134.00000 815.00000 205.00000 136 129 124
134.00000 815.00000 209.00000 138 131 126
138.00000 815.00000 205.00000 130 123 118
138.00000 815.00000 209.00000 131 124 119
138.00000 819.00000 181.00000 58 51 46
138.00000 819.00000 185.00000 56 49 44
138.00000 823.00000 181.00000 84 77 72
138.00000 823.00000 185.00000 66 59 54
138.00000 819.00000 189.00000 59 52 47
138.00000 823.00000 189.00000 52 45 40
138.00000 823.00000 193.00000 61 54 49
138.00000 827.00000 181.00000 75 68 63
138.00000 827.00000 185.00000 63 56 51
138.00000 831.00000 181.00000 71 64 59
138.00000 831.00000 185.00000 60 53 48
138.00000 827.00000 189.00000 62 55 50
138.00000 827.00000 193.00000 69 62 57
138.00000 831.00000 189.00000 52 45 40
138.00000 831.00000 193.00000 83 76 71
134.00000 819.00000 209.00000 132 125 120
138.00000 819.00000 205.00000 129 122 117
138.00000 819.00000 209.00000 125 118 113
138.00000 827.00000 197.00000 112 105 100
138.00000 827.00000 201.00000 138 132 127
138.00000 831.00000 197.00000 127 120 115
138.00000 831.00000 201.00000 132 125 120
138.00000 827.00000 205.00000 133 126 121
138.00000 831.00000 205.00000 129 122 117
106.00000 771.00000 213.00000 122 115 112
106.00000 771.00000 217.00000 122 115 112
106.00000 775.00000 213.00000 124 117 114
106.00000 775.00000 217.00000 122 115 112
102.00000 771.00000 225.00000 119 112 109
102.00000 775.00000 225.00000 120 113 110
106.00000 771.00000 221.00000 121 114 111
106.00000 771.00000 225.00000 120 113 110
106.00000 775.00000 221.00000 121 114 111
106.00000 775.00000 225.00000 120 113 110
106.00000 779.00000 213.00000 127 120 117
106.00000 779.00000 217.00000 125 118 115
106.00000 783.00000 213.00000 129 122 119
106.00000 783.00000 217.00000 126 119 116
102.00000 779.00000 225.00000 120 113 110
106.00000 779.00000 221.00000 123 116 113
106.00000 779.00000 225.00000 121 114 111
106.00000 783.00000 221.00000 122 115 112
106.00000 783.00000 225.00000 120 113 110
102.00000 771.00000 229.00000 120 113 110
102.00000 771.00000 233.00000 121 114 111
102.00000 775.00000 229.00000 119 112 109
102.00000 775.00000 233.00000 120 113 110
102.00000 771.00000 237.00000 121 114 111
102.00000 771.00000 241.00000 122 115 112
102.00000 775.00000 237.00000 120 113 110
102.00000 775.00000 241.00000 121 114 111
102.00000 779.00000 229.00000 119 112 109
102.00000 779.00000 233.00000 117 110 107
106.00000 779.00000 229.00000 119 112 109
106.00000 779.00000 233.00000 117 110 107
106.00000 783.00000 229.00000 115 108 105
106.00000 783.00000 233.00000 115 108 105
102.00000 779.00000 237.00000 120 113 110
102.00000 779.00000 241.00000 122 115 112
102.00000 783.00000 237.00000 118 111 108
102.00000 783.00000 241.00000 120 113 110
106.00000 783.00000 237.00000 118 111 108
106.00000 783.00000 241.00000 122 115 112
106.00000 787.00000 213.00000 133 126 123
106.00000 787.00000 217.00000 127 120 117
106.00000 791.00000 217.00000 126 119 116
106.00000 787.00000 221.00000 122 115 112
106.00000 787.00000 225.00000 115 108 105
106.00000 791.00000 221.00000 120 113 110
106.00000 791.00000 225.00000 113 106 103
106.00000 795.00000 225.00000 113 106 103
106.00000 787.00000 229.00000 111 104 101
106.00000 787.00000 233.00000 112 105 102
106.00000 791.00000 229.00000 111 104 101
106.00000 791.00000 233.00000 108 101 98
106.00000 787.00000 237.00000 117 110 107
106.00000 787.00000 241.00000 121 114 111
106.00000 791.00000 237.00000 116 109 106
106.00000 791.00000 241.00000 124 117 114
106.00000 795.00000 229.00000 111 104 101
106.00000 795.00000 233.00000 113 106 103
106.00000 795.00000 237.00000 120 113 110
106.00000 795.00000 241.00000 124 117 114
106.00000 799.00000 237.00000 124 117 114
106.00000 799.00000 241.00000 128 121 118
102.00000 771.00000 245.00000 121 114 111
102.00000 771.00000 249.00000 131 124 121
102.00000 775.00000 245.00000 111 104 101
102.00000 775.00000 249.00000 120 113 110
102.00000 771.00000 253.00000 128 121 118
102.00000 771.00000 257.00000 138 131 128
102.00000 775.00000 253.00000 117 110 107
102.00000 775.00000 257.00000 131 124 121
106.00000 771.00000 257.00000 138 131 128
106.00000 775.00000 253.00000 122 115 112
106.00000 775.00000 257.00000 137 130 127
102.00000 779.00000 245.00000 100 93 90
102.00000 779.00000 249.00000 82 75 72
102.00000 783.00000 245.00000 107 100 97
106.00000 779.00000 245.00000 106 99 96
106.00000 779.00000 249.00000 101 94 91
106.00000 783.00000 245.00000 113 106 103
106.00000 783.00000 249.00000 108 101 98
106.00000 779.00000 253.00000 112 105 102
106.00000 779.00000 257.00000 127 120 117
106.00000 783.00000 253.00000 118 111 108
106.00000 783.00000 257.00000 133 126 123
102.00000 771.00000 261.00000 138 131 128
106.00000 771.00000 261.00000 138 131 128
106.00000 771.00000 265.00000 140 133 130
106.00000 775.00000 261.00000 138 131 128
106.00000 775.00000 265.00000 140 133 130
106.00000 771.00000 269.00000 141 134 131
106.00000 771.00000 273.00000 142 135 132
106.00000 775.00000 269.00000 142 135 132
106.00000 775.00000 273.00000 144 137 134
106.00000 779.00000 261.00000 135 128 125
106.00000 779.00000 265.00000 137 130 127
106.00000 783.00000 261.00000 132 125 122
106.00000 783.00000 265.00000 134 127 124
106.00000 779.00000 269.00000 139 132 129
106.00000 779.00000 273.00000 141 134 131
106.00000 783.00000 269.00000 135 128 125
106.00000 787.00000 245.00000 123 116 113
106.00000 787.00000 249.00000 131 124 121
106.00000 791.00000 245.00000 130 123 120
106.00000 791.00000 249.00000 137 130 127
106.00000 787.00000 253.00000 132 125 122
106.00000 787.00000 257.00000 130 123 120
106.00000 791.00000 253.00000 132 125 122
106.00000 791.00000 257.00000 128 121 118
106.00000 795.00000 245.00000 130 123 120
106.00000 795.00000 249.00000 132 125 122
106.00000 799.00000 245.00000 129 122 119
106.00000 795.00000 253.00000 130 123 120
106.00000 787.00000 261.00000 131 124 121
106.00000 787.00000 265.00000 131 124 121
106.00000 791.00000 261.00000 128 121 118
110.00000 779.00000 213.00000 130 123 120
110.00000 783.00000 213.00000 135 128 125
110.00000 787.00000 213.00000 135 128 125
110.00000 787.00000 217.00000 130 123 120
110.00000 791.00000 213.00000 139 132 129
110.00000 791.00000 217.00000 130 123 120
110.00000 791.00000 221.00000 121 114 111
110.00000 791.00000 225.00000 117 110 107
110.00000 795.00000 213.00000 137 130 127
110.00000 795.00000 217.00000 132 125 122
110.00000 799.00000 213.00000 139 132 129
110.00000 799.00000 217.00000 134 127 124
114.00000 795.00000 213.00000 140 133 130
114.00000 799.00000 213.00000 136 129 126
114.00000 799.00000 217.00000 130 123 120
110.00000 795.00000 221.00000 120 113 110
110.00000 795.00000 225.00000 116 109 106
110.00000 799.00000 221.00000 122 115 112
110.00000 799.00000 225.00000 117 110 107
114.00000 799.00000 221.00000 124 117 114
110.00000 795.00000 229.00000 114 107 104
110.00000 795.00000 233.00000 111 104 101
110.00000 799.00000 229.00000 114 107 104
110.00000 799.00000 233.00000 116 109 106
110.00000 799.00000 237.00000 123 116 113
110.00000 799.00000 241.00000 128 121 118
110.00000 771.00000 273.00000 142 135 132
110.00000 775.00000 273.00000 142 135 132
110.00000 783.00000 265.00000 132 125 122
110.00000 779.00000 269.00000 137 130 127
110.00000 779.00000 273.00000 139 132 129
110.00000 783.00000 269.00000 134 127 124
110.00000 783.00000 273.00000 134 127 124
110.00000 791.00000 253.00000 131 124 121
110.00000 791.00000 257.00000 126 119 116
110.00000 795.00000 245.00000 130 123 120
110.00000 795.00000 249.00000 130 123 120
110.00000 799.00000 245.00000 129 122 119
110.00000 799.00000 249.00000 128 121 118
110.00000 795.00000 253.00000 128 121 118
110.00000 795.00000 257.00000 124 117 114
110.00000 799.00000 253.00000 125 118 115
110.00000 799.00000 257.00000 123 116 113
110.00000 787.00000 261.00000 128 121 118
110.00000 787.00000 265.00000 129 122 119
110.00000 791.00000 261.00000 124 117 114
110.00000 791.00000 265.00000 123 116 113
110.00000 787.00000 269.00000 129 122 119
110.00000 787.00000 273.00000 130 123 120
110.00000 791.00000 269.00000 124 117 114
110.00000 791.00000 273.00000 127 120 117
114.00000 787.00000 273.00000 128 121 118
114.00000 791.00000 269.00000 124 117 114
114.00000 791.00000 273.00000 127 120 117
110.00000 795.00000 261.00000 121 114 111
110.00000 795.00000 265.00000 117 110 107
110.00000 799.00000 261.00000 121 114 111
110.00000 799.00000 265.00000 120 113 110
114.00000 795.00000 265.00000 120 113 110
114.00000 799.00000 261.00000 121 114 111
114.00000 799.00000 265.00000 121 114 111
110.00000 795.00000 269.00000 121 114 111
114.00000 795.00000 269.00000 123 116 113
114.00000 795.00000 273.00000 125 118 115
114.00000 799.00000 269.00000 123 116 113
114.00000 799.00000 273.00000 125 118 115
118.00000 795.00000 273.00000 125 118 115
118.00000 799.00000 269.00000 123 116 113
118.00000 799.00000 273.00000 125 118 115
114.00000 803.00000 213.00000 138 131 128
114.00000 803.00000 217.00000 137 130 127
110.00000 803.00000 225.00000 114 107 104
114.00000 803.00000 221.00000 118 111 108
114.00000 803.00000 225.00000 114 107 104
114.00000 807.00000 221.00000 124 117 114
114.00000 807.00000 225.00000 108 101 98
118.00000 803.00000 213.00000 149 142 139
118.00000 803.00000 217.00000 154 147 144
118.00000 807.00000 213.00000 154 147 144
118.00000 807.00000 217.00000 160 153 150
122.00000 807.00000 213.00000 165 158 155
122.00000 807.00000 217.00000 182 175 172
118.00000 807.00000 221.00000 144 137 134
118.00000 807.00000 225.00000 128 121 118
122.00000 811.00000 213.00000 160 153 150
122.00000 811.00000 217.00000 166 159 156
118.00000 811.00000 221.00000 141 134 131
118.00000 811.00000 225.00000 123 116 113
122.00000 811.00000 221.00000 157 150 145
122.00000 811.00000 225.00000 139 132 127
122.00000 815.00000 221.00000 146 139 134
122.00000 815.00000 225.00000 137 130 125
110.00000 803.00000 229.00000 117 110 107
110.00000 803.00000 233.00000 122 115 112
114.00000 803.00000 229.00000 115 108 105
114.00000 803.00000 233.00000 120 113 110
114.00000 807.00000 229.00000 119 112 109
114.00000 807.00000 233.00000 123 116 113
110.00000 803.00000 237.00000 129 122 119
110.00000 803.00000 241.00000 133 126 123
110.00000 807.00000 237.00000 131 124 121
110.00000 807.00000 241.00000 135 128 125
114.00000 807.00000 237.00000 132 125 122
114.00000 807.00000 241.00000 141 134 131
114.00000 811.00000 233.00000 129 122 119
114.00000 811.00000 237.00000 132 125 122
114.00000 811.00000 241.00000 136 129 126
118.00000 807.00000 229.00000 119 112 109
118.00000 811.00000 229.00000 128 121 118
118.00000 811.00000 233.00000 131 124 121
118.00000 815.00000 233.00000 134 127 122
122.00000 811.00000 229.00000 134 127 122
122.00000 811.00000 233.00000 133 126 121
122.00000 815.00000 229.00000 137 130 125
122.00000 815.00000 233.00000 135 128 123
118.00000 811.00000 237.00000 134 127 122
118.00000 811.00000 241.00000 136 129 124
118.00000 815.00000 237.00000 134 127 122
118.00000 815.00000 241.00000 134 127 122
122.00000 815.00000 237.00000 134 127 122
122.00000 815.00000 241.00000 132 125 120
122.00000 819.00000 237.00000 132 125 120
122.00000 819.00000 241.00000 129 122 117
126.00000 811.00000 213.00000 150 143 138
126.00000 811.00000 217.00000 161 154 151
126.00000 815.00000 213.00000 145 138 133
126.00000 815.00000 217.00000 148 141 136
130.00000 811.00000 213.00000 144 137 132
130.00000 815.00000 213.00000 139 132 127
130.00000 815.00000 217.00000 138 131 126
126.00000 815.00000 221.00000 143 136 131
126.00000 815.00000 225.00000 145 138 133
130.00000 815.00000 221.00000 144 137 132
130.00000 815.00000 225.00000 150 143 138
134.00000 815.00000 213.00000 135 128 123
134.00000 815.00000 217.00000 133 126 121
126.00000 815.00000 229.00000 141 134 129
126.00000 815.00000 233.00000 135 128 123
130.00000 819.00000 217.00000 133 126 121
126.00000 819.00000 225.00000 140 133 128
130.00000 819.00000 221.00000 135 128 123
130.00000 819.00000 225.00000 142 135 130
134.00000 819.00000 213.00000 128 121 116
134.00000 819.00000 217.00000 126 119 114
138.00000 819.00000 213.00000 124 117 112
138.00000 819.00000 217.00000 124 117 112
134.00000 819.00000 221.00000 130 123 118
134.00000 819.00000 225.00000 133 126 121
138.00000 819.00000 221.00000 122 115 110
138.00000 819.00000 225.00000 124 117 112
138.00000 823.00000 221.00000 122 115 110
138.00000 823.00000 225.00000 119 112 107
126.00000 819.00000 229.00000 134 127 122
126.00000 819.00000 233.00000 128 121 116
130.00000 819.00000 229.00000 134 127 122
130.00000 819.00000 233.00000 129 122 117
130.00000 823.00000 233.00000 124 117 112
126.00000 819.00000 237.00000 124 117 112
126.00000 819.00000 241.00000 124 117 112
126.00000 823.00000 237.00000 122 115 110
126.00000 823.00000 241.00000 120 113 108
130.00000 819.00000 237.00000 120 113 108
130.00000 823.00000 237.00000 119 112 107
130.00000 823.00000 241.00000 116 109 104
134.00000 819.00000 229.00000 124 117 112
134.00000 819.00000 233.00000 121 114 109
134.00000 823.00000 229.00000 120 113 108
134.00000 823.00000 233.00000 120 113 108
138.00000 823.00000 229.00000 119 112 107
138.00000 823.00000 233.00000 119 112 107
134.00000 823.00000 237.00000 119 112 107
134.00000 823.00000 241.00000 115 108 103
138.00000 823.00000 237.00000 116 109 104
138.00000 823.00000 241.00000 109 102 97
134.00000 827.00000 241.00000 113 106 101
138.00000 827.00000 237.00000 114 107 102
138.00000 827.00000 241.00000 112 105 100
110.00000 803.00000 245.00000 131 124 121
110.00000 803.00000 249.00000 126 119 116
110.00000 807.00000 245.00000 134 127 124
110.00000 807.00000 249.00000 130 123 120
114.00000 803.00000 249.00000 126 119 116
114.00000 807.00000 245.00000 132 125 122
114.00000 807.00000 249.00000 130 123 120
110.00000 803.00000 253.00000 124 117 114
110.00000 803.00000 257.00000 122 115 112
114.00000 803.00000 253.00000 124 117 114
114.00000 803.00000 257.00000 121 114 111
114.00000 807.00000 253.00000 123 116 113
114.00000 807.00000 257.00000 117 110 107
114.00000 811.00000 245.00000 134 127 124
114.00000 811.00000 249.00000 128 121 118
114.00000 811.00000 253.00000 123 116 113
114.00000 811.00000 257.00000 120 113 110
118.00000 807.00000 257.00000 119 112 109
118.00000 811.00000 245.00000 129 122 119
118.00000 811.00000 249.00000 126 119 116
118.00000 815.00000 245.00000 128 121 116
118.00000 815.00000 249.00000 126 119 116
122.00000 815.00000 245.00000 126 119 114
122.00000 815.00000 249.00000 125 118 115
118.00000 811.00000 253.00000 123 116 113
118.00000 811.00000 257.00000 119 112 109
118.00000 815.00000 253.00000 124 117 114
118.00000 815.00000 257.00000 121 114 111
122.00000 815.00000 253.00000 123 116 113
122.00000 815.00000 257.00000 121 114 111
114.00000 803.00000 261.00000 121 114 111
114.00000 803.00000 265.00000 123 116 113
114.00000 807.00000 261.00000 122 115 112
114.00000 807.00000 265.00000 123 116 113
114.00000 803.00000 269.00000 126 119 116
118.00000 803.00000 265.00000 125 118 115
118.00000 807.00000 261.00000 121 114 111
118.00000 807.00000 265.00000 123 116 113
118.00000 803.00000 269.00000 128 121 118
118.00000 803.00000 273.00000 131 124 121
118.00000 807.00000 269.00000 131 124 121
122.00000 803.00000 273.00000 135 128 125
122.00000 807.00000 269.00000 134 127 124
122.00000 807.00000 273.00000 140 133 130
118.00000 811.00000 261.00000 124 117 114
118.00000 811.00000 265.00000 127 120 117
122.00000 811.00000 261.00000 124 117 114
122.00000 811.00000 265.00000 126 119 116
122.00000 815.00000 261.00000 125 118 115
122.00000 815.00000 265.00000 127 120 117
122.00000 811.00000 269.00000 132 125 122
122.00000 811.00000 273.00000 135 128 125
122.00000 819.00000 245.00000 126 119 114
122.00000 819.00000 249.00000 122 115 110
122.00000 819.00000 253.00000 122 115 110
122.00000 819.00000 257.00000 120 113 108
126.00000 807.00000 273.00000 136 129 126
126.00000 811.00000 265.00000 128 121 118
126.00000 815.00000 261.00000 124 117 114
126.00000 815.00000 265.00000 127 120 117
130.00000 815.00000 265.00000 126 119 114
126.00000 811.00000 269.00000 131 124 121
126.00000 811.00000 273.00000 133 126 123
126.00000 815.00000 269.00000 127 120 115
130.00000 811.00000 273.00000 130 123 118
130.00000 815.00000 269.00000 128 121 116
130.00000 815.00000 273.00000 129 122 117
134.00000 811.00000 273.00000 128 121 116
134.00000 815.00000 269.00000 127 120 115
134.00000 815.00000 273.00000 128 121 116
138.00000 811.00000 273.00000 127 120 115
138.00000 815.00000 269.00000 126 119 114
138.00000 815.00000 273.00000 127 120 115
126.00000 819.00000 245.00000 121 114 109
126.00000 819.00000 249.00000 119 112 107
126.00000 823.00000 245.00000 117 110 105
126.00000 823.00000 249.00000 116 109 104
130.00000 823.00000 245.00000 115 108 103
130.00000 823.00000 249.00000 115 108 103
126.00000 819.00000 253.00000 118 111 106
126.00000 819.00000 257.00000 118 111 106
126.00000 823.00000 253.00000 117 110 105
130.00000 819.00000 257.00000 119 112 107
130.00000 823.00000 253.00000 116 109 104
130.00000 823.00000 257.00000 117 110 105
134.00000 823.00000 245.00000 113 106 101
134.00000 823.00000 249.00000 120 113 108
134.00000 823.00000 253.00000 133 126 121
134.00000 823.00000 257.00000 139 132 127
138.00000 823.00000 253.00000 149 142 137
138.00000 823.00000 257.00000 168 161 156
134.00000 827.00000 245.00000 117 110 105
134.00000 827.00000 249.00000 126 119 114
138.00000 827.00000 245.00000 112 105 100
138.00000 827.00000 249.00000 128 121 116
138.00000 827.00000 253.00000 147 140 135
126.00000 819.00000 261.00000 122 115 110
126.00000 819.00000 265.00000 125 118 113
130.00000 819.00000 261.00000 122 115 110
130.00000 819.00000 265.00000 126 119 114
130.00000 823.00000 261.00000 125 118 113
134.00000 819.00000 261.00000 129 122 117
134.00000 819.00000 265.00000 131 124 119
134.00000 823.00000 261.00000 136 129 124
138.00000 819.00000 261.00000 141 134 129
138.00000 819.00000 265.00000 127 120 115
138.00000 823.00000 261.00000 134 127 122
138.00000 823.00000 265.00000 124 117 112
134.00000 819.00000 269.00000 128 121 116
138.00000 819.00000 269.00000 126 119 114
138.00000 835.00000 185.00000 72 65 60
138.00000 835.00000 189.00000 85 78 73
138.00000 835.00000 193.00000 89 82 77
138.00000 839.00000 189.00000 94 87 82
138.00000 839.00000 193.00000 107 100 95
138.00000 843.00000 193.00000 138 131 126
138.00000 835.00000 197.00000 132 125 120
138.00000 835.00000 201.00000 153 146 141
138.00000 839.00000 197.00000 154 147 142
138.00000 839.00000 201.00000 157 150 145
138.00000 835.00000 205.00000 146 139 134
138.00000 839.00000 205.00000 132 125 120
138.00000 843.00000 197.00000 160 153 148
138.00000 843.00000 201.00000 186 179 174
142.00000 771.00000 149.00000 145 138 135
142.00000 771.00000 153.00000 113 106 103
142.00000 775.00000 149.00000 122 115 112
142.00000 775.00000 153.00000 105 98 95
146.00000 771.00000 149.00000 127 120 117
146.00000 775.00000 149.00000 117 110 107
146.00000 775.00000 153.00000 107 100 97
142.00000 771.00000 157.00000 91 84 81
142.00000 771.00000 161.00000 83 76 73
142.00000 775.00000 157.00000 91 84 81
142.00000 775.00000 161.00000 78 71 68
146.00000 771.00000 161.00000 81 74 71
142.00000 779.00000 153.00000 90 83 80
142.00000 783.00000 153.00000 88 81 78
146.00000 779.00000 149.00000 105 98 95
146.00000 779.00000 153.00000 100 93 90
146.00000 783.00000 153.00000 93 86 83
142.00000 779.00000 157.00000 81 74 71
142.00000 783.00000 157.00000 87 80 77
146.00000 783.00000 157.00000 92 85 82
150.00000 775.00000 149.00000 106 99 96
150.00000 779.00000 149.00000 98 91 88
150.00000 779.00000 153.00000 98 91 88
150.00000 783.00000 149.00000 99 92 89
150.00000 783.00000 153.00000 97 90 87
154.00000 779.00000 149.00000 99 92 89
154.00000 783.00000 149.00000 101 94 91
142.00000 771.00000 165.00000 86 79 76
142.00000 775.00000 165.00000 82 75 72
146.00000 787.00000 153.00000 97 90 87
142.00000 787.00000 157.00000 95 88 85
142.00000 787.00000 161.00000 97 90 87
142.00000 791.00000 161.00000 98 91 88
146.00000 787.00000 157.00000 96 89 86
146.00000 787.00000 161.00000 98 91 88
146.00000 791.00000 157.00000 100 93 90
146.00000 791.00000 161.00000 99 92 89
150.00000 787.00000 153.00000 102 95 92
150.00000 791.00000 153.00000 105 98 95
154.00000 787.00000 149.00000 104 97 94
154.00000 787.00000 153.00000 105 98 95
154.00000 791.00000 149.00000 106 99 96
154.00000 791.00000 153.00000 104 97 94
150.00000 787.00000 157.00000 100 93 90
150.00000 791.00000 157.00000 100 93 90
150.00000 791.00000 161.00000 97 90 87
154.00000 791.00000 157.00000 103 96 93
154.00000 791.00000 161.00000 98 91 88
150.00000 795.00000 161.00000 94 87 84
154.00000 795.00000 157.00000 99 92 89
154.00000 795.00000 161.00000 93 86 83
154.00000 799.00000 161.00000 89 82 77
142.00000 787.00000 165.00000 96 89 86
142.00000 787.00000 169.00000 96 89 86
142.00000 791.00000 165.00000 96 89 86
142.00000 791.00000 169.00000 95 88 85
146.00000 791.00000 165.00000 96 89 86
146.00000 791.00000 169.00000 95 88 85
142.00000 787.00000 173.00000 96 89 86
142.00000 791.00000 173.00000 95 88 85
142.00000 791.00000 177.00000 98 91 88
142.00000 795.00000 169.00000 93 86 83
146.00000 795.00000 165.00000 94 87 84
146.00000 795.00000 169.00000 93 86 83
146.00000 799.00000 169.00000 87 80 77
142.00000 795.00000 173.00000 91 84 81
142.00000 795.00000 177.00000 93 86 83
142.00000 799.00000 173.00000 89 82 79
142.00000 799.00000 177.00000 91 84 81
146.00000 795.00000 173.00000 89 82 79
146.00000 799.00000 173.00000 84 77 72
150.00000 795.00000 165.00000 92 85 82
150.00000 795.00000 169.00000 90 83 80
150.00000 799.00000 165.00000 87 80 75
150.00000 799.00000 169.00000 84 77 72
154.00000 799.00000 165.00000 86 79 74
158.00000 791.00000 149.00000 106 99 96
158.00000 791.00000 153.00000 109 102 99
158.00000 791.00000 157.00000 105 98 95
158.00000 795.00000 149.00000 104 97 92
158.00000 795.00000 153.00000 105 98 95
162.00000 795.00000 149.00000 103 96 91
162.00000 795.00000 153.00000 102 95 90
162.00000 799.00000 149.00000 103 96 91
162.00000 799.00000 153.00000 100 93 88
158.00000 795.00000 157.00000 102 95 90
158.00000 795.00000 161.00000 94 87 82
158.00000 799.00000 157.00000 95 88 83
158.00000 799.00000 161.00000 88 81 76
162.00000 795.00000 157.00000 100 93 88
162.00000 799.00000 157.00000 95 88 83
162.00000 799.00000 161.00000 89 82 77
166.00000 795.00000 149.00000 98 91 86
166.00000 799.00000 149.00000 98 91 86
166.00000 799.00000 153.00000 97 90 85
170.00000 799.00000 149.00000 93 86 81
158.00000 799.00000 165.00000 85 78 73
142.00000 795.00000 181.00000 102 95 92
142.00000 799.00000 181.00000 98 91 88
142.00000 799.00000 185.00000 102 95 92
146.00000 807.00000 161.00000 68 61 56
142.00000 815.00000 161.00000 64 57 52
146.00000 811.00000 161.00000 68 61 56
146.00000 815.00000 161.00000 64 57 52
150.00000 807.00000 161.00000 71 64 59
154.00000 807.00000 161.00000 75 68 63
150.00000 811.00000 161.00000 69 62 57
150.00000 815.00000 161.00000 66 59 54
154.00000 811.00000 161.00000 69 62 57
154.00000 815.00000 161.00000 63 56 51
142.00000 807.00000 169.00000 63 56 51
146.00000 803.00000 169.00000 73 66 61
146.00000 807.00000 165.00000 68 61 56
146.00000 807.00000 169.00000 67 60 55
142.00000 803.00000 173.00000 66 59 54
142.00000 803.00000 177.00000 73 66 61
142.00000 807.00000 173.00000 64 57 52
142.00000 807.00000 177.00000 62 55 50
146.00000 803.00000 173.00000 68 61 56
146.00000 807.00000 173.00000 65 58 53
142.00000 811.00000 165.00000 64 57 52
142.00000 811.00000 169.00000 63 56 51
142.00000 815.00000 165.00000 63 56 51
142.00000 815.00000 169.00000 62 55 50
146.00000 811.00000 165.00000 64 57 52
146.00000 815.00000 165.00000 61 54 49
142.00000 811.00000 173.00000 57 50 45
142.00000 811.00000 177.00000 57 50 45
150.00000 803.00000 165.00000 79 72 67
150.00000 803.00000 169.00000 77 70 65
150.00000 807.00000 165.00000 74 67 62
150.00000 807.00000 169.00000 73 66 61
154.00000 803.00000 165.00000 80 73 68
154.00000 803.00000 169.00000 81 74 69
154.00000 807.00000 165.00000 76 69 64
142.00000 819.00000 161.00000 65 58 53
142.00000 823.00000 161.00000 67 60 55
146.00000 819.00000 157.00000 66 59 54
146.00000 819.00000 161.00000 67 60 55
146.00000 823.00000 157.00000 67 60 55
146.00000 823.00000 161.00000 68 61 56
150.00000 819.00000 157.00000 67 60 55
150.00000 819.00000 161.00000 66 59 54
150.00000 823.00000 157.00000 68 61 56
150.00000 823.00000 161.00000 70 63 58
154.00000 819.00000 157.00000 66 59 54
154.00000 819.00000 161.00000 67 60 55
154.00000 823.00000 157.00000 68 61 56
154.00000 823.00000 161.00000 69 62 57
150.00000 827.00000 161.00000 73 66 61
154.00000 827.00000 157.00000 71 64 59
154.00000 827.00000 161.00000 71 64 59
142.00000 819.00000 165.00000 65 58 53
142.00000 823.00000 165.00000 68 61 56
142.00000 823.00000 169.00000 70 63 58
146.00000 823.00000 165.00000 69 62 57
142.00000 827.00000 165.00000 70 63 58
142.00000 827.00000 169.00000 75 68 63
142.00000 831.00000 169.00000 78 71 66
146.00000 827.00000 165.00000 72 65 60
146.00000 827.00000 169.00000 75 68 63
146.00000 831.00000 169.00000 78 71 66
142.00000 827.00000 173.00000 77 70 65
142.00000 831.00000 173.00000 78 71 66
142.00000 831.00000 177.00000 80 73 68
146.00000 831.00000 173.00000 79 72 67
146.00000 831.00000 177.00000 80 73 68
150.00000 827.00000 165.00000 75 68 63
150.00000 827.00000 169.00000 76 69 64
150.00000 831.00000 165.00000 78 71 66
150.00000 831.00000 169.00000 79 72 67
154.00000 827.00000 165.00000 74 67 62
154.00000 831.00000 165.00000 78 71 66
154.00000 831.00000 169.00000 81 74 69
150.00000 831.00000 173.00000 80 73 68
150.00000 831.00000 177.00000 80 73 68
154.00000 831.00000 173.00000 84 77 72
154.00000 831.00000 177.00000 81 74 69
162.00000 803.00000 153.00000 95 88 83
158.00000 803.00000 161.00000 85 78 73
158.00000 807.00000 161.00000 75 68 63
162.00000 803.00000 157.00000 89 82 77
162.00000 803.00000 161.00000 85 78 73
162.00000 807.00000 161.00000 81 74 69
158.00000 811.00000 161.00000 70 63 58
158.00000 815.00000 161.00000 71 64 59
162.00000 811.00000 161.00000 72 65 60
162.00000 815.00000 161.00000 71 64 59
166.00000 803.00000 149.00000 95 88 83
166.00000 803.00000 153.00000 93 86 81
166.00000 807.00000 149.00000 92 85 80
166.00000 807.00000 153.00000 88 81 76
170.00000 803.00000 149.00000 93 86 81
170.00000 807.00000 149.00000 92 85 80
170.00000 807.00000 153.00000 91 84 79
166.00000 803.00000 157.00000 87 80 75
166.00000 803.00000 161.00000 84 77 72
166.00000 807.00000 157.00000 83 76 71
166.00000 807.00000 161.00000 80 73 68
166.00000 811.00000 153.00000 87 80 75
170.00000 811.00000 149.00000 96 86 82
170.00000 811.00000 153.00000 92 85 80
166.00000 811.00000 157.00000 81 74 69
166.00000 811.00000 161.00000 82 75 70
166.00000 815.00000 161.00000 78 71 66
170.00000 811.00000 157.00000 87 80 75
170.00000 811.00000 161.00000 87 80 75
158.00000 803.00000 165.00000 81 74 69
158.00000 807.00000 165.00000 77 70 65
162.00000 803.00000 165.00000 81 74 69
162.00000 807.00000 165.00000 77 70 65
162.00000 815.00000 165.00000 72 65 60
166.00000 811.00000 165.00000 75 68 63
166.00000 815.00000 165.00000 79 72 67
166.00000 815.00000 169.00000 73 66 61
170.00000 811.00000 165.00000 84 77 72
170.00000 815.00000 165.00000 90 83 78
170.00000 815.00000 169.00000 88 81 76
158.00000 819.00000 161.00000 70 63 58
158.00000 823.00000 157.00000 70 63 58
158.00000 823.00000 161.00000 70 63 58
162.00000 819.00000 161.00000 70 63 58
162.00000 823.00000 161.00000 70 63 58
158.00000 827.00000 157.00000 71 64 59
158.00000 827.00000 161.00000 72 65 60
162.00000 827.00000 161.00000 71 64 59
162.00000 819.00000 165.00000 71 64 59
158.00000 827.00000 165.00000 73 66 61
158.00000 831.00000 165.00000 76 69 64
158.00000 831.00000 169.00000 81 74 69
162.00000 827.00000 165.00000 71 64 59
162.00000 831.00000 165.00000 75 68 63
162.00000 831.00000 169.00000 77 70 65
158.00000 831.00000 173.00000 89 82 77
162.00000 831.00000 173.00000 77 70 65
166.00000 819.00000 165.00000 76 69 64
166.00000 819.00000 169.00000 82 75 70
166.00000 823.00000 165.00000 69 62 57
166.00000 823.00000 169.00000 74 67 62
170.00000 819.00000 169.00000 100 93 88
166.00000 819.00000 173.00000 73 66 61
166.00000 823.00000 173.00000 77 70 65
166.00000 823.00000 177.00000 52 45 40
170.00000 819.00000 173.00000 93 86 81
170.00000 823.00000 173.00000 106 99 94
170.00000 823.00000 177.00000 87 80 75
166.00000 827.00000 165.00000 69 62 57
166.00000 827.00000 169.00000 66 59 54
166.00000 831.00000 165.00000 70 63 58
166.00000 831.00000 169.00000 67 60 55
166.00000 827.00000 173.00000 74 67 62
166.00000 827.00000 177.00000 76 69 64
166.00000 831.00000 173.00000 66 59 54
166.00000 831.00000 177.00000 63 56 51
